692,691,691,691,692,691,691,691,691,691,691,691,690,690,689,689,688,688,688,688,687,688,687,687,687,687,687,687,687,687,687,687,687,687,687,687,686,687,687,687,687,687,687,687,687,687,687,687,687,686,686,686,686,687,687,687,686,687,687,687,687,687,688,688,688,689,689,689,689,689,689,689,689,689,689,689,689,689,689,689,689,689,689,689,689,689,689,689,689,690,690,689,690,690,689,690,689,689,689,690,689,690,690,690,690,690,690,690,690,690,690,690,690,690,690,689,690,690,690,690,689,690,689,689,689,689,689,689,689,689,689,689,689,688,688,688,688,689,688,688,689,689,689,689,689,689,689,689,689,689,689,689,689,688,689,688,688,688,688,689,689,689,689,689,689,689,689,688,688,689,688,688,688,688,688,688,688,688,687,687,688,688,688,687,687,687,688,688,688,687,687,687,687,687,687,686,686,686,686,686,686,686,685,685,685,685,685,2047,2047,2047,2047,2047,2047,2047,2047,2047,2047,616,615,615,615,615,613,614,615,616,615,615,614,615,615,615,614,614,614,614,614,614,614,614,614,614,614,614,613,613,613,613,613,613,613,613,613,613,613,613,613,613,613,614,613,613,613,613,613,613,613,613,613,613,613,613,613,613,613,613,613,613,613,613,613,613,612,612,612,612,612,612,612,612,612,612,612,612,612,612,612,612,612,611,611,612,611,611,611,611,611,611,611,611,611,611,611,611,611,611,611,611,610,610,610,611,610,610,611,610,610,610,610,610,610,611,610,610,611,611,610,610,610,610,610,610,610,610,610,611,610,610,610,610,610,610,610,609,610,609,609,609,610,610,610,610,610,610,610,610,610,610,610,610,610,610,610,610,610,610,609,610,609,609,609,609,610,610,610,610,609,609,609,610,609,609,609,609,610,609,609,609,609,609,609,609,609,609,609,609,609,610,610,610,610,610,610,610,610,610,610,610,610,610,610,610,610,610,610,610,610,610,610,610,610,610,610,610,610,610,610,610,610,610,610,610,610,610,610,610,610,610,610,610,610,610,610,610,610,611,612,614,614,615,615,615,616,678,678,678,678,678,678,678,678,678,678,678,678,678,678,678,678,678,678,678,678,678,678,678,678,678,678,678,678,678,678,678,678,678,678,678,678,678,678,678,678,678,677,678,678,678,677,678,678,678,678,678,678,678,678,677,678,677,677,677,677,677,677,677,677,677,677,677,677,677,677,677,677,677,677,677,677,677,677,677,677,677,677,677,677,677,677,677,677,677,676,676,676,676,676,676,676,676,677,677,677,677,677,677,676,676,676,676,676,676,676,675,676,676,676,677,677,677,676,677,676,677,677,677,676,676,676,676,676,676,676,677,677,677,677,677,676,676,676,676,676,675,675,675,675,675,675,676,675,676,675,675,675,675,675,674,674,674,674,674,674,674,674,675,674,674,675,674,674,674,2047,2047,2047,2047,2047,2047,2047,2047
691,691,692,691,692,692,691,691,691,691,691,691,690,689,689,688,688,688,688,688,687,688,687,688,687,687,687,687,687,687,687,687,687,687,687,687,687,687,687,687,687,687,687,687,687,687,687,687,687,687,687,687,687,687,687,687,687,687,687,687,687,687,688,688,688,689,689,689,689,689,689,689,689,689,689,689,689,689,689,689,689,689,688,688,689,689,689,689,689,689,690,689,689,689,689,689,689,689,689,689,689,689,689,689,689,690,690,690,690,690,690,690,690,690,690,689,689,689,689,689,689,689,689,689,689,689,689,689,689,689,689,689,689,689,689,689,689,689,689,689,689,689,689,689,689,689,689,689,689,689,689,689,688,688,688,688,688,688,688,689,689,689,689,689,689,688,688,688,688,688,688,688,688,688,688,688,688,688,687,687,687,687,687,687,686,687,687,687,687,687,687,687,687,687,687,687,686,686,686,686,686,686,685,685,685,685,685,685,2047,2047,2047,2047,2047,2047,2047,2047,2047,2047,615,615,615,615,614,615,615,614,614,614,614,615,615,614,614,614,614,614,614,614,615,615,615,614,614,614,613,613,613,613,613,613,613,613,613,613,613,613,613,613,613,614,614,613,613,613,613,613,613,613,613,613,613,613,613,613,613,613,613,613,613,613,612,612,612,612,612,612,612,612,612,612,612,612,612,612,612,612,612,612,612,611,611,612,612,612,612,612,611,611,611,611,611,611,611,611,611,611,611,611,610,610,610,610,611,610,611,610,610,610,610,610,610,611,610,610,611,611,610,610,610,610,610,610,610,610,611,611,611,610,610,610,610,610,610,610,610,609,609,609,610,609,609,610,610,610,610,610,610,610,610,610,610,610,610,610,610,610,610,610,609,610,610,609,609,609,609,609,609,609,609,609,609,609,609,609,609,609,609,609,609,609,609,609,609,609,609,609,609,610,610,610,610,610,610,610,610,610,610,610,610,610,610,610,610,610,610,610,610,610,610,610,610,610,610,610,610,610,610,610,610,610,610,610,610,610,610,610,610,610,610,610,610,609,610,610,610,611,612,614,614,615,615,616,616,678,678,678,678,678,678,678,678,678,678,678,678,678,678,677,678,678,678,678,678,678,678,678,678,678,678,678,678,678,678,678,678,679,678,678,678,678,678,678,677,677,677,677,677,678,677,677,677,677,677,677,677,677,678,677,677,677,677,677,677,677,677,677,677,677,677,677,677,677,677,677,677,677,677,677,677,677,677,677,677,677,677,677,677,677,677,677,677,677,676,676,676,676,676,676,676,676,676,677,677,677,676,676,676,676,676,676,675,675,675,675,676,676,675,676,677,677,676,676,677,677,677,677,676,676,676,677,676,676,676,676,676,676,677,676,676,676,676,676,676,675,675,675,675,676,676,676,676,676,676,675,675,675,675,674,674,674,674,674,674,674,674,674,674,674,674,674,674,674,2047,2047,2047,2047,2047,2047,2047,2047
692,692,692,692,692,692,692,691,691,691,690,690,690,689,689,688,688,688,688,687,687,688,687,688,687,687,687,687,687,687,687,687,687,687,687,687,687,687,687,687,687,687,687,687,687,687,687,687,687,687,687,687,687,687,687,687,687,687,687,687,687,687,687,687,688,689,689,689,689,689,689,689,689,689,689,689,689,689,689,689,689,689,689,689,689,689,689,689,689,689,690,690,690,689,689,689,689,689,689,689,689,689,689,689,689,689,689,689,689,689,689,690,690,690,689,689,689,689,689,689,689,689,689,689,689,689,689,689,689,689,689,689,689,689,689,689,689,689,689,689,689,689,689,689,689,689,689,689,689,689,689,689,688,688,688,688,688,688,688,688,688,688,688,688,688,688,688,688,688,688,688,688,688,688,688,688,688,688,687,687,687,687,687,686,686,687,687,687,687,687,687,687,687,687,687,687,686,686,686,687,686,685,685,685,685,685,685,685,685,2047,2047,2047,2047,2047,2047,2047,2047,2047,615,614,615,614,614,615,615,615,615,615,614,615,615,614,614,614,614,614,614,614,615,615,615,614,614,614,614,613,613,613,613,613,613,613,613,613,613,613,613,613,613,614,613,613,613,613,613,613,613,613,613,613,613,613,613,613,613,613,613,613,613,613,612,612,612,612,612,612,612,612,612,612,612,612,612,612,612,612,612,612,612,611,611,611,611,611,612,611,611,611,611,611,611,611,611,611,611,611,611,610,610,610,610,610,611,611,611,611,610,610,610,610,610,611,610,610,610,610,610,610,610,610,610,610,610,610,611,611,610,610,610,610,610,610,610,610,610,609,609,609,609,609,609,609,610,609,610,610,610,610,610,610,610,610,610,610,610,610,610,610,609,610,610,609,610,610,610,609,609,609,609,609,609,609,609,609,610,610,610,610,609,609,609,609,609,610,609,609,610,610,610,610,610,610,610,610,610,610,610,610,610,610,610,610,610,610,610,610,610,610,610,610,610,610,610,610,610,610,610,610,610,610,611,610,610,610,610,610,610,610,610,610,610,609,610,610,610,611,612,614,615,615,615,616,616,678,678,678,678,678,678,678,678,678,678,678,678,678,678,677,678,678,678,678,678,678,678,678,678,678,678,678,678,678,678,678,679,679,678,678,678,678,678,678,677,677,677,677,677,677,677,677,677,677,677,677,678,677,678,677,678,677,677,677,677,677,677,677,677,677,677,677,677,677,677,677,678,678,677,677,677,677,677,677,676,677,677,677,677,677,677,677,677,677,676,676,676,676,677,676,676,676,677,677,677,676,676,676,676,676,675,675,675,675,675,675,675,676,675,676,676,676,676,676,676,677,677,677,676,676,676,677,676,676,676,676,676,676,676,676,676,676,676,676,676,675,675,675,675,675,675,676,675,676,675,675,675,675,675,674,674,674,674,674,674,674,674,674,674,674,674,674,674,674,2047,2047,2047,2047,2047,2047,2047,2047
692,692,692,692,692,692,691,691,691,691,690,690,690,689,688,688,688,688,688,687,687,687,687,687,687,687,687,687,687,687,687,687,687,687,687,687,687,687,687,687,687,687,687,687,687,687,687,687,687,686,686,687,686,687,687,687,687,687,687,687,687,687,688,688,688,689,689,689,689,689,689,689,689,688,689,688,689,689,689,689,689,689,689,689,689,689,689,689,689,689,690,689,689,689,689,689,689,689,689,689,689,689,689,689,689,689,690,689,689,689,690,690,690,689,689,689,689,689,689,689,689,689,689,689,689,689,689,689,689,689,689,689,689,689,689,689,689,689,689,689,689,689,689,690,689,689,689,689,689,689,688,688,688,688,688,688,688,688,688,688,688,688,688,688,688,688,688,687,687,687,688,688,688,688,688,688,688,688,687,687,687,688,688,688,686,687,687,687,687,687,687,686,687,687,687,686,686,686,685,686,685,685,685,685,685,685,685,685,2047,2047,2047,2047,2047,2047,2047,2047,2047,616,616,615,615,615,614,615,615,615,615,615,615,615,615,614,614,614,614,614,615,615,615,615,615,615,615,614,614,613,613,613,613,613,613,613,613,613,613,613,613,613,614,614,614,614,613,613,613,613,613,613,613,613,613,613,613,613,613,613,613,613,613,613,612,612,612,612,612,612,612,612,612,612,612,612,612,612,612,612,612,612,612,612,612,612,611,612,612,611,611,611,611,611,611,611,611,611,611,611,611,610,610,610,610,610,610,610,610,610,610,610,610,610,611,610,610,610,610,610,610,610,610,610,610,610,610,610,610,611,610,610,610,610,610,610,610,610,610,609,609,609,609,609,609,609,610,609,610,610,610,610,610,610,610,610,610,610,610,610,610,610,609,610,610,610,610,610,610,609,609,609,609,609,609,610,609,609,610,610,610,610,609,609,610,610,610,610,610,610,610,610,610,610,610,610,610,610,610,610,610,610,610,610,610,610,610,610,610,610,610,610,610,610,610,610,610,610,610,610,610,610,610,611,611,610,610,610,610,610,610,610,610,610,609,609,610,610,611,611,612,614,615,615,616,616,616,678,678,678,678,678,678,678,678,678,678,678,678,678,678,677,678,678,678,678,678,678,678,678,678,678,678,678,678,678,678,678,678,678,678,677,677,677,678,677,677,677,677,677,677,677,677,677,677,677,677,677,677,677,677,677,677,677,677,677,677,677,677,677,677,677,677,677,677,677,677,677,677,677,677,677,677,677,676,677,676,676,676,677,676,677,677,677,677,677,676,676,676,676,676,676,676,676,676,677,677,676,676,676,676,676,675,675,675,675,675,675,675,676,675,676,676,677,676,676,676,677,677,677,676,676,676,677,677,676,676,676,676,676,676,675,675,675,675,675,676,675,676,675,675,675,675,675,675,675,675,675,675,675,675,674,674,674,674,674,674,674,674,674,674,674,674,674,674,674,2047,2047,2047,2047,2047,2047,2047,2047
692,692,692,692,692,692,691,691,691,690,690,691,689,689,688,688,688,688,688,687,687,687,687,687,687,687,687,687,687,687,687,687,687,687,687,687,687,687,687,687,687,687,687,687,687,687,687,687,687,686,687,687,687,687,687,687,687,687,687,687,687,687,687,687,687,689,689,689,689,689,689,689,689,688,688,688,689,688,688,689,689,689,689,689,689,689,689,689,689,689,690,689,689,689,689,689,689,689,689,689,689,689,689,689,689,689,689,689,689,688,690,690,690,690,689,689,689,689,689,689,689,689,690,689,689,689,689,689,689,689,689,689,689,689,689,689,689,689,689,689,689,689,689,689,689,689,689,689,689,689,688,688,688,688,688,688,688,688,688,688,688,688,688,688,688,688,688,687,687,687,688,688,688,687,688,688,688,688,687,687,687,687,687,687,686,687,687,687,687,687,687,686,687,687,687,686,686,686,686,687,686,685,685,685,685,685,685,684,684,2047,2047,2047,2047,2047,2047,2047,616,616,616,615,615,615,615,615,615,615,615,615,615,615,615,615,614,614,614,614,614,614,615,615,615,615,615,614,614,613,613,613,613,613,613,613,613,613,614,614,614,614,614,614,614,614,614,613,613,613,613,613,613,613,612,612,613,613,612,613,613,613,613,613,612,612,612,612,612,612,612,612,612,612,612,612,612,612,612,612,612,612,612,612,612,612,612,612,612,611,611,611,611,611,611,611,611,611,611,611,610,610,610,610,609,610,610,610,610,611,610,610,610,610,611,610,610,610,610,610,610,610,610,610,610,610,610,610,610,611,610,610,610,610,610,610,610,609,610,609,609,609,609,609,609,610,610,610,610,610,610,610,610,610,610,610,610,610,610,610,610,610,610,610,610,610,610,610,610,610,609,609,610,610,609,610,609,609,610,610,610,610,610,609,610,610,610,610,610,610,610,610,610,610,610,610,610,610,610,610,610,610,610,610,610,610,610,610,610,610,610,610,610,610,610,610,610,610,610,610,610,611,611,611,611,610,610,610,610,610,610,610,610,610,610,609,610,610,610,611,612,614,615,615,616,616,616,678,678,678,678,678,677,678,678,678,678,678,678,678,678,678,678,678,678,678,678,678,678,678,678,678,678,678,678,678,678,678,678,678,677,677,677,677,677,677,677,677,677,677,677,677,677,677,677,677,677,677,677,677,678,677,677,677,677,677,677,677,676,677,677,677,677,677,677,677,677,677,677,677,677,677,677,676,676,677,676,677,676,676,676,677,677,677,677,676,676,676,676,676,676,676,676,676,676,677,677,676,676,676,676,676,676,675,675,675,675,675,675,676,675,676,676,676,676,676,676,676,676,676,676,676,676,676,676,676,676,676,676,676,675,675,675,675,675,675,675,675,676,675,675,675,675,675,675,675,675,675,675,675,675,674,674,674,674,674,674,674,674,674,674,674,674,674,674,674,2047,2047,2047,2047,2047,2047,2047,2047
692,692,692,692,692,691,691,690,690,691,690,690,689,689,688,688,688,688,688,687,687,687,687,687,687,687,687,687,687,687,687,687,687,687,687,687,687,687,687,687,687,687,687,687,687,687,687,687,687,687,687,687,686,687,687,687,687,687,687,687,687,687,687,687,687,689,689,689,689,689,689,689,689,688,688,688,689,688,688,689,688,689,689,689,689,689,689,689,689,689,689,689,689,689,689,689,689,689,689,689,689,689,689,689,689,689,689,689,689,689,690,690,690,690,689,689,689,689,689,689,689,689,689,689,689,689,689,689,689,689,689,689,689,689,689,689,689,689,689,689,689,689,689,689,689,689,689,689,689,689,689,689,688,688,688,689,688,688,688,688,688,688,688,688,688,688,688,688,687,687,687,687,688,688,687,688,688,688,687,687,687,687,686,686,686,687,687,687,687,687,687,687,687,687,687,686,686,686,686,687,686,686,685,685,685,685,685,684,684,2047,2047,2047,2047,2047,2047,2047,616,615,615,615,615,615,615,615,615,615,614,615,615,615,615,614,614,614,614,614,614,614,615,615,615,615,615,614,614,613,613,613,613,613,613,613,613,613,613,613,613,614,614,614,613,613,613,613,613,613,613,613,613,613,612,612,613,612,612,612,612,612,613,613,612,612,612,612,612,612,612,612,612,612,612,612,612,612,612,612,612,612,612,612,612,612,612,612,612,611,611,611,611,611,611,611,611,611,611,611,610,610,610,610,609,610,610,610,610,610,610,610,610,610,611,610,610,610,611,611,611,610,610,610,610,610,610,610,610,610,610,610,610,610,610,610,610,610,610,610,610,609,609,609,609,610,609,610,610,610,610,610,610,610,610,610,609,609,609,609,609,609,609,610,610,610,610,610,610,610,610,610,610,610,610,610,609,609,610,610,610,610,610,609,610,610,610,610,610,610,610,610,610,610,610,610,610,610,610,610,610,609,610,610,610,610,610,610,610,610,610,610,610,610,610,610,610,610,610,610,611,611,611,611,611,611,610,610,610,610,610,610,610,610,610,610,610,610,611,612,613,614,615,616,616,616,678,678,678,678,678,678,677,678,678,678,678,678,678,678,678,678,678,678,678,678,678,678,678,678,678,678,678,678,678,678,678,678,678,678,677,677,677,677,677,677,677,677,677,677,677,677,677,677,677,677,677,677,677,677,677,677,677,677,677,677,677,677,676,677,677,677,677,677,677,677,677,677,677,677,677,677,677,676,677,677,676,676,676,676,676,676,676,676,676,676,676,675,676,676,676,676,676,676,676,677,677,676,676,676,676,676,676,675,675,675,675,675,675,676,675,676,677,676,676,676,676,676,676,676,675,676,676,676,676,676,676,676,676,676,675,675,675,675,675,675,675,675,676,675,675,675,675,675,675,675,675,675,675,675,675,675,675,674,675,675,674,674,674,674,674,674,674,674,673,673,2047,2047,2047,2047,2047,2047,2047,2047
691,692,692,691,691,691,691,691,691,691,690,690,690,688,688,688,688,688,688,687,687,687,687,687,687,687,687,687,687,687,686,687,687,687,687,687,687,687,687,687,687,687,687,687,687,687,687,687,687,687,687,687,687,687,686,687,686,686,687,687,687,687,687,687,687,688,689,689,688,689,689,689,689,688,688,688,689,688,688,689,689,689,689,689,688,689,689,689,689,689,689,689,689,689,689,689,689,689,689,689,689,689,689,689,689,689,689,689,689,688,689,690,690,690,689,689,689,689,689,689,690,690,690,690,690,689,689,689,689,689,689,689,689,689,689,689,689,689,689,689,689,689,689,689,689,689,689,689,689,689,689,689,689,689,689,689,688,688,688,688,688,688,688,688,688,688,688,687,686,687,687,687,687,687,687,688,688,687,687,687,687,687,686,686,686,686,687,687,687,687,687,687,687,687,687,687,686,686,686,686,686,686,685,685,685,685,685,684,684,2047,2047,2047,2047,2047,2047,2047,616,615,615,615,615,615,615,615,615,615,615,615,615,615,615,614,614,615,614,615,615,615,615,615,615,615,615,614,614,613,613,613,613,613,613,613,613,613,613,613,613,613,614,614,613,613,613,613,613,613,613,613,613,613,612,613,613,613,613,613,613,613,613,613,612,612,612,612,612,612,612,612,612,613,612,612,612,612,612,612,612,612,612,612,612,612,612,612,612,612,612,611,611,612,611,611,611,611,611,610,610,610,610,609,609,610,610,610,610,610,610,610,610,610,610,610,610,610,610,610,611,610,610,610,610,610,610,610,610,610,610,610,610,610,610,610,610,610,610,609,609,609,609,609,609,609,609,610,610,610,610,610,610,610,610,609,609,609,609,609,609,609,610,610,610,610,610,610,610,610,610,610,610,610,610,610,609,609,609,609,610,610,610,609,610,610,610,610,610,610,610,610,610,610,610,610,610,610,610,610,610,609,609,610,610,610,610,610,610,610,610,610,610,610,610,610,610,610,611,611,611,612,611,612,611,611,610,610,610,610,610,610,610,610,610,610,610,610,611,612,613,614,615,615,616,616,678,678,677,678,677,678,677,678,677,678,678,678,678,678,678,678,678,678,678,678,678,678,678,678,678,678,678,678,678,678,678,678,678,678,677,677,677,677,677,677,677,677,677,677,677,677,677,677,677,677,677,677,677,677,677,677,677,677,677,677,677,677,677,677,677,677,677,677,677,677,677,677,677,677,677,677,677,676,676,676,676,676,676,676,676,676,676,676,676,676,675,675,675,676,676,676,677,676,676,677,677,676,676,676,675,675,675,675,675,675,675,675,675,675,675,676,676,676,676,676,676,676,676,676,676,676,676,676,676,676,676,676,676,676,675,675,675,675,675,675,675,675,675,675,675,675,675,675,675,675,675,675,675,675,675,675,675,675,675,675,675,674,674,674,674,674,674,673,673,673,2047,2047,2047,2047,2047,2047,2047,2047
692,692,692,691,691,691,691,691,691,691,690,691,691,689,688,688,688,688,688,687,687,687,687,687,687,687,687,687,687,687,686,687,687,687,687,687,687,686,687,687,687,687,687,686,687,687,687,687,687,687,687,687,687,687,687,687,687,687,687,687,687,687,687,687,687,689,689,689,689,689,689,689,689,688,688,688,689,688,688,689,688,689,689,689,689,689,689,689,689,689,689,689,689,689,689,689,689,689,689,689,689,689,689,689,689,689,689,690,689,688,690,690,690,690,689,689,689,689,689,689,689,689,690,690,689,689,689,690,689,689,689,689,689,689,689,689,689,689,689,689,689,689,689,689,689,689,689,689,689,689,689,688,689,689,689,689,688,688,688,688,688,688,688,688,688,688,688,687,686,687,687,687,687,687,687,688,688,687,687,687,687,687,686,686,686,686,687,687,687,687,687,687,687,687,687,686,686,686,686,686,686,685,685,685,684,684,684,684,684,684,2047,2047,2047,2047,2047,2047,616,616,615,615,615,615,615,615,615,614,615,615,615,615,615,615,615,615,615,615,615,615,615,615,615,615,615,614,614,613,613,613,613,613,613,613,613,613,613,613,613,613,613,613,613,613,613,613,613,613,613,613,613,613,613,613,613,613,613,613,613,613,613,613,613,612,612,612,612,612,612,612,613,613,612,612,612,612,612,611,611,611,612,612,612,612,612,612,612,612,611,611,611,611,611,611,611,611,611,610,610,609,610,609,609,610,610,610,610,610,610,610,610,610,611,610,610,610,610,610,610,610,610,610,610,610,610,610,610,610,610,610,610,610,610,610,610,610,610,610,609,609,609,609,609,610,609,609,610,610,610,610,610,610,610,609,609,609,609,609,609,609,610,610,610,610,610,610,610,610,610,610,610,610,610,610,609,609,609,609,610,610,610,610,610,610,610,610,610,610,610,610,610,610,610,610,610,610,610,610,610,609,610,610,610,610,610,610,610,610,610,610,610,610,610,610,610,611,611,612,612,612,611,611,611,610,610,610,610,610,610,610,610,610,610,610,610,610,611,612,613,614,614,615,615,678,678,678,678,678,678,678,677,677,677,677,678,677,677,678,678,678,678,678,678,678,678,678,678,678,678,678,678,678,678,678,678,677,677,677,677,677,677,677,677,677,677,677,677,677,677,677,677,677,677,677,677,677,677,677,677,677,677,677,677,677,677,677,677,677,677,677,677,677,677,677,677,677,677,677,677,677,677,676,676,676,676,676,676,676,676,676,676,676,676,676,675,675,675,676,676,676,676,676,676,676,676,676,676,675,675,675,675,675,675,674,675,675,675,675,675,676,676,676,676,676,676,676,676,676,676,676,676,676,676,676,676,675,676,675,675,675,675,675,675,675,675,675,675,675,675,675,675,675,675,675,675,675,675,675,675,675,675,675,674,675,674,674,674,674,674,674,674,673,673,672,2047,2047,2047,2047,2047,2047,2047,2047
692,691,691,691,691,691,691,691,691,691,690,691,691,688,688,688,688,688,688,688,687,688,687,687,687,687,687,686,686,686,685,687,686,686,687,687,687,686,686,686,686,687,686,686,687,687,687,687,687,687,687,687,687,687,687,687,687,687,687,687,687,687,687,687,687,689,689,689,688,689,689,689,689,688,688,688,689,688,688,689,688,689,689,689,689,689,689,689,689,689,689,689,689,689,689,689,689,689,689,689,689,689,689,689,689,689,690,690,688,688,688,689,689,689,689,688,689,689,689,689,689,689,690,690,689,689,690,689,689,689,689,689,689,689,689,689,689,689,689,689,689,689,689,689,689,688,689,688,688,688,688,688,688,689,689,689,689,688,688,688,688,688,688,688,688,688,687,687,686,687,687,687,687,687,687,687,688,687,687,687,687,687,686,686,686,686,687,687,687,687,687,687,687,687,686,686,686,685,685,686,685,685,685,685,684,684,684,684,684,684,2047,2047,2047,2047,2047,615,615,615,615,615,615,615,615,615,615,615,614,615,615,615,614,614,614,615,615,615,615,615,615,615,615,615,615,614,614,613,613,613,613,613,613,613,613,613,613,613,613,613,613,613,613,613,613,613,613,613,613,613,613,613,613,613,613,613,613,613,613,613,613,613,613,612,612,613,613,613,612,613,613,613,612,612,612,612,612,612,612,612,612,612,612,612,612,612,612,612,612,612,612,612,611,611,611,611,610,610,610,609,609,609,609,610,610,610,610,610,610,610,610,610,610,610,610,610,610,610,610,610,610,610,610,610,610,610,610,610,610,610,610,610,610,610,610,610,610,610,610,609,609,610,610,610,610,610,610,610,610,610,609,610,610,610,609,609,609,609,609,609,610,610,610,610,610,610,610,610,610,610,610,610,610,610,609,610,610,610,610,610,610,610,610,610,610,610,610,610,610,610,610,610,610,610,610,610,610,610,610,610,610,610,610,610,610,610,610,610,610,610,610,610,610,610,611,611,611,612,612,612,611,611,611,610,610,610,610,610,610,610,610,610,610,610,611,610,611,612,613,614,614,615,678,678,678,678,678,678,678,678,677,677,677,677,677,677,677,678,678,678,678,678,678,678,678,678,678,678,678,678,678,678,678,678,678,678,677,677,677,677,677,677,677,677,677,677,677,677,677,677,677,677,677,677,677,677,677,677,677,677,677,677,677,677,677,677,677,677,677,677,677,677,677,677,677,677,677,677,677,677,677,676,676,676,676,676,676,676,676,676,676,676,676,676,676,675,676,676,676,676,676,676,676,676,676,676,675,675,675,675,675,675,674,674,675,675,675,675,675,676,676,675,675,675,675,675,676,676,676,676,676,676,676,675,676,675,675,675,675,675,675,675,675,675,675,675,675,675,675,675,675,675,675,675,675,674,675,674,674,675,675,674,674,675,674,674,674,674,674,674,674,673,673,672,2047,2047,2047,2047,2047,2047,2047,2047
692,692,691,691,691,691,691,691,691,691,691,690,690,689,689,688,688,688,688,688,688,688,688,687,688,687,687,687,686,686,685,687,686,685,686,686,686,686,686,686,686,686,686,686,687,687,687,687,687,687,687,686,687,686,686,687,686,687,687,687,687,687,687,687,687,689,689,689,688,689,689,688,689,688,688,689,689,689,689,689,689,689,689,689,688,689,689,688,689,689,689,688,689,689,689,689,689,689,689,689,689,689,689,689,689,689,689,690,688,688,688,690,689,689,689,689,689,689,689,689,689,689,690,690,689,689,689,689,689,689,689,689,689,689,689,689,689,689,689,689,689,689,688,688,688,689,688,688,688,688,688,688,688,688,689,689,688,688,688,688,688,688,688,688,688,687,687,687,687,687,687,687,687,687,687,687,687,687,687,687,687,686,686,686,686,686,687,687,687,687,687,687,687,686,686,686,686,686,686,686,685,685,685,685,685,684,684,684,684,684,2047,2047,2047,2047,2047,616,616,615,615,615,615,615,615,615,615,615,614,615,615,615,614,614,614,615,615,615,615,615,615,616,616,616,616,616,615,615,613,613,613,613,613,613,613,613,613,614,613,613,613,613,613,613,613,613,613,613,613,613,613,613,613,613,613,613,613,613,613,613,613,613,613,612,612,613,613,613,613,612,612,613,612,612,612,612,612,612,612,612,612,612,612,612,612,612,612,612,612,611,611,611,611,610,611,610,610,610,610,609,609,609,609,610,610,610,610,610,610,610,610,610,610,610,610,610,610,610,610,610,610,610,610,610,610,610,610,610,609,610,610,610,609,609,609,609,610,610,609,609,609,609,610,610,610,610,610,610,609,609,609,610,610,610,610,610,609,609,609,609,610,610,610,610,610,610,610,610,610,610,610,609,610,610,609,609,610,610,610,610,610,610,610,610,610,610,610,610,610,610,610,610,610,610,610,610,610,610,610,610,610,610,610,610,610,610,610,610,610,610,610,610,610,610,610,611,612,612,611,611,611,611,610,610,610,610,610,610,610,610,610,610,610,611,611,611,612,613,614,614,615,615,677,677,677,678,678,678,677,677,677,677,677,677,677,677,677,678,678,678,678,678,678,678,678,678,678,678,678,678,678,678,678,678,678,677,677,677,677,677,677,677,677,677,677,677,677,677,677,677,677,677,677,677,677,677,677,677,677,677,677,677,677,677,677,677,677,677,677,676,677,677,677,677,677,677,677,677,677,677,677,676,676,676,676,676,676,676,676,676,676,675,675,676,675,675,675,675,675,676,676,675,676,676,676,676,676,675,675,675,675,674,674,674,675,675,675,675,675,676,676,675,675,675,675,675,675,676,676,676,676,676,676,675,676,675,675,675,675,675,675,675,675,675,675,675,675,675,675,674,675,674,675,674,674,674,674,674,674,675,674,674,674,675,675,674,674,674,674,674,674,673,673,672,2047,2047,2047,2047,2047,2047,2047,2047
691,691,690,690,691,691,691,690,690,690,690,690,690,689,689,688,688,688,688,688,688,688,688,687,688,687,687,686,686,686,685,686,685,685,685,685,685,685,686,686,685,686,686,686,686,687,687,687,687,687,687,686,687,686,686,686,686,686,687,687,687,687,687,687,687,689,689,689,688,688,688,688,688,688,688,688,689,688,689,689,689,689,689,689,688,689,689,688,689,689,688,688,689,689,689,689,689,689,689,689,689,689,689,689,689,689,689,690,689,689,689,689,689,689,689,688,689,689,689,689,689,689,690,690,689,690,689,689,689,689,689,689,689,689,689,689,689,689,689,688,688,688,688,688,688,688,688,688,688,688,688,688,688,688,688,688,688,688,688,688,688,688,688,688,688,687,687,687,687,687,687,687,687,687,687,687,687,687,687,687,687,687,686,686,686,686,687,687,687,687,687,686,686,686,686,686,686,686,686,686,686,685,685,685,685,684,684,684,684,684,2047,2047,2047,2047,2047,616,616,615,615,615,615,615,615,615,615,615,615,615,615,615,614,614,615,615,615,615,615,615,616,616,616,616,616,616,615,615,613,613,613,613,613,613,613,613,614,614,613,613,613,613,613,613,613,614,614,613,613,613,613,613,613,613,613,613,613,613,613,613,613,613,613,612,612,612,612,613,613,612,613,613,613,613,612,612,612,612,612,612,612,612,612,612,612,612,612,612,612,611,611,611,611,612,611,611,611,610,610,610,610,609,609,610,610,610,610,610,610,610,610,610,611,610,610,610,610,610,610,610,610,610,610,610,610,610,610,610,610,609,609,610,609,609,609,609,610,610,610,610,610,610,610,610,610,610,609,610,609,610,609,610,610,610,609,609,609,609,609,609,610,610,610,611,610,610,610,610,610,610,610,609,610,610,609,609,609,609,609,609,609,609,610,610,610,610,610,610,610,610,610,610,610,610,610,610,610,610,610,610,610,610,610,610,610,610,610,610,610,610,610,610,610,610,611,611,612,612,612,612,611,610,610,610,610,610,610,610,610,610,610,610,610,611,611,611,612,613,614,614,614,615,616,677,678,678,678,677,677,677,677,677,677,677,677,677,677,678,678,678,678,678,678,678,678,678,678,678,678,678,678,678,678,678,678,677,677,677,677,677,677,677,677,677,677,677,677,677,677,677,677,677,677,677,677,677,677,677,677,677,677,677,677,676,677,676,676,677,677,676,676,677,677,677,677,677,677,677,677,677,677,676,676,676,676,676,676,676,676,676,676,676,675,676,676,675,675,675,675,676,676,675,676,676,676,676,675,675,675,675,675,674,674,675,675,675,676,675,675,676,676,675,675,676,675,675,675,675,675,676,676,676,676,675,675,675,675,675,675,675,675,675,675,675,675,675,675,675,675,674,674,674,674,674,674,674,674,674,674,674,674,674,674,675,674,674,674,674,674,674,674,673,673,672,2047,2047,2047,2047,2047,2047,2047,2047
690,690,690,690,691,691,691,691,690,690,690,690,690,690,689,688,689,688,688,688,688,688,688,687,688,687,687,686,685,685,685,686,685,685,685,685,685,685,685,685,685,685,685,686,686,686,687,686,687,687,687,686,687,686,686,686,686,686,686,686,687,687,687,687,687,688,688,688,688,688,688,688,688,688,688,688,689,688,688,689,688,689,688,689,688,689,688,688,689,688,688,688,688,688,689,689,689,689,689,689,689,689,689,689,689,689,689,689,689,689,689,689,689,689,689,688,689,689,689,689,689,690,690,690,689,689,689,689,689,689,689,689,689,689,689,689,689,689,689,688,688,688,688,688,688,688,688,688,689,689,689,689,689,688,688,688,688,688,688,688,688,688,688,688,688,687,688,687,687,687,687,687,687,687,687,687,687,687,687,687,686,687,686,686,686,686,687,686,686,687,686,686,686,686,686,686,686,686,686,685,685,685,685,685,685,684,684,684,684,2047,2047,2047,2047,2047,2047,616,616,615,615,615,615,615,615,615,615,615,615,615,614,614,614,614,615,615,615,615,615,615,615,616,616,616,616,615,615,615,614,613,614,614,613,613,613,613,613,613,613,613,613,613,613,613,613,613,613,613,613,613,613,613,613,613,613,613,613,613,613,613,613,613,613,612,612,612,613,612,612,612,612,613,613,613,612,613,612,612,612,612,612,612,612,612,612,612,612,612,612,611,611,611,612,612,612,611,610,610,610,610,610,609,610,610,610,610,610,610,610,610,610,610,611,610,610,610,610,610,610,609,609,610,610,609,610,610,610,610,610,610,609,610,609,609,609,609,609,610,609,609,610,610,610,610,610,610,610,610,609,609,609,610,610,610,609,609,609,609,609,609,610,610,610,611,610,610,610,610,610,610,610,609,609,610,609,609,610,610,610,609,609,609,610,610,610,610,610,610,610,610,610,610,610,610,610,610,610,610,610,610,610,610,610,610,610,610,610,610,610,610,610,610,610,610,611,611,611,611,612,611,611,610,610,610,610,610,610,610,610,610,610,610,611,611,611,611,612,613,613,614,614,614,616,680,678,678,678,678,677,677,677,677,677,677,677,677,677,678,678,678,678,678,678,678,678,678,678,678,678,678,678,678,678,678,678,677,677,677,677,677,677,677,677,677,677,677,677,677,677,677,677,677,677,677,677,677,677,677,677,677,676,677,677,676,676,676,676,677,677,677,677,677,677,677,677,677,677,677,677,677,677,676,676,677,677,676,676,676,676,676,676,676,676,676,676,676,675,675,675,676,676,676,676,676,676,676,675,675,675,675,674,674,674,674,675,675,675,675,675,676,676,675,675,675,675,675,675,675,675,675,675,675,675,675,675,675,675,675,674,674,674,675,675,675,674,675,675,675,675,674,674,674,674,674,674,674,674,674,674,674,674,674,674,674,674,674,674,674,674,674,674,673,673,673,2047,2047,2047,2047,2047,2047,2047,2047
690,690,690,690,691,691,691,691,691,691,691,690,691,690,690,689,689,688,688,688,688,688,687,687,688,687,686,686,685,685,685,686,685,685,685,685,685,685,685,685,685,685,685,685,686,687,687,686,687,687,687,686,686,686,685,685,685,686,686,686,686,687,687,687,687,688,688,688,688,688,688,688,688,688,688,688,689,688,688,689,688,689,688,689,688,689,689,688,688,689,688,688,688,688,689,689,689,689,689,689,689,689,689,689,689,689,689,689,689,689,689,689,689,689,689,688,689,689,689,689,689,689,690,690,689,689,689,689,689,689,689,689,689,689,689,689,689,689,689,688,688,688,688,688,688,688,688,688,689,689,689,689,689,688,688,688,688,688,688,688,688,688,688,687,687,687,687,687,686,686,687,686,687,687,687,687,687,687,687,687,687,687,687,686,686,686,686,686,686,686,686,686,686,686,685,686,686,686,686,686,685,685,685,685,685,684,684,684,2047,2047,2047,2047,2047,2047,2047,2047,615,615,615,615,615,614,615,615,615,615,615,615,614,614,614,614,615,614,615,615,615,614,615,616,616,616,616,615,615,615,614,613,614,614,613,613,613,613,613,613,613,613,613,613,613,613,613,613,613,614,614,613,613,614,613,613,613,613,613,613,613,613,613,613,613,612,612,612,612,612,612,612,612,613,613,613,613,612,612,612,612,612,612,612,612,612,612,612,612,612,611,611,611,611,612,612,612,610,610,610,610,610,609,609,609,610,610,611,610,610,610,611,610,611,611,610,610,610,610,610,610,609,609,609,610,610,609,610,610,610,610,609,609,610,609,609,609,609,609,610,610,610,610,610,610,610,610,610,610,610,609,610,609,610,610,610,610,609,609,609,609,609,610,610,610,610,610,610,610,610,610,610,610,609,610,610,609,609,609,610,609,609,609,609,610,610,610,610,610,610,610,610,610,610,610,610,610,610,610,610,610,610,610,610,610,610,610,610,610,610,610,610,610,610,610,611,611,611,611,611,612,611,611,610,610,610,610,610,610,610,610,610,610,611,611,611,611,611,612,613,613,613,614,614,615,614,679,678,678,677,677,677,677,677,677,677,677,677,677,678,678,678,678,678,678,678,678,678,678,678,678,678,678,678,678,678,678,678,677,677,677,677,677,677,677,677,677,677,677,677,677,677,677,677,677,677,677,677,677,677,677,676,676,676,677,676,676,676,676,677,677,677,677,677,677,677,677,677,677,677,676,676,676,676,677,677,677,676,676,676,676,676,676,675,675,676,676,676,676,676,676,676,676,676,676,676,676,676,675,675,675,674,674,674,674,674,675,675,675,675,675,676,676,675,675,675,675,675,675,675,675,675,676,675,675,675,675,675,675,675,675,675,674,675,675,675,674,675,675,675,674,674,674,674,674,674,674,673,674,674,674,674,674,673,673,674,674,674,674,674,673,674,674,673,673,673,2047,2047,2047,2047,2047,2047,2047,2047
690,690,690,691,691,691,691,691,691,691,691,690,691,691,690,688,688,687,688,688,687,687,687,687,687,687,686,686,685,685,685,686,685,685,685,685,685,685,685,685,685,685,685,685,687,687,687,686,687,687,686,686,686,686,685,686,686,686,686,686,686,686,687,687,687,688,688,688,688,688,688,688,688,688,688,688,688,688,688,688,688,689,688,689,688,689,689,688,689,689,689,688,689,689,689,689,689,689,689,689,689,689,689,689,689,689,689,689,689,689,689,689,689,689,689,688,689,689,689,689,689,689,689,690,689,690,689,689,689,689,689,689,689,689,689,689,689,689,689,689,689,688,688,688,688,688,688,688,688,688,688,688,688,688,688,688,687,688,688,688,688,688,688,687,687,687,687,687,686,686,686,686,686,687,686,687,687,687,687,687,686,687,687,687,686,686,686,686,686,686,686,685,685,685,685,685,685,685,685,685,685,685,685,685,685,684,684,684,2047,2047,2047,2047,2047,2047,2047,616,616,616,615,615,615,615,615,615,615,615,615,615,615,615,614,614,615,614,615,614,615,614,615,616,616,616,616,616,615,615,614,613,613,614,613,613,613,613,613,613,613,613,613,613,614,613,613,613,614,613,613,613,613,613,613,613,613,613,613,613,613,613,613,613,613,612,612,612,613,613,612,612,612,612,612,612,612,612,612,612,612,612,612,612,612,611,612,612,611,612,612,611,611,611,611,611,611,610,610,610,610,610,609,609,609,610,610,611,610,611,611,611,610,611,611,610,610,610,610,610,610,609,610,610,610,610,610,610,610,610,610,610,609,610,610,610,609,610,610,610,610,610,610,610,610,610,610,610,610,610,609,609,609,610,610,610,610,609,609,609,609,610,610,610,610,610,610,610,610,610,610,610,610,609,610,609,609,609,609,610,609,610,609,609,610,610,610,610,610,610,610,610,610,610,610,610,610,610,610,610,610,610,610,610,610,610,610,610,610,610,610,610,610,610,611,611,611,611,611,612,612,611,611,610,610,610,610,610,610,610,610,610,610,611,611,611,611,611,612,612,613,613,613,614,616,615,678,678,677,677,677,677,677,677,677,677,677,677,677,678,678,678,678,678,678,678,678,678,678,678,678,677,678,678,678,678,678,677,677,677,677,677,677,677,677,677,677,677,677,677,677,677,677,677,677,677,677,677,677,677,677,677,676,676,676,676,676,676,676,676,677,677,677,677,677,677,677,677,676,676,676,676,676,675,676,676,676,676,675,676,676,676,676,676,676,676,677,676,676,676,676,676,676,676,676,676,675,675,675,675,675,674,674,674,674,674,674,674,675,675,675,676,676,675,675,675,675,675,675,675,675,675,676,675,675,675,675,675,675,675,674,675,674,675,675,675,674,675,675,675,674,674,674,674,674,674,674,673,674,674,674,674,674,674,674,674,674,674,674,674,674,673,673,673,673,673,2047,2047,2047,2047,2047,2047,2047,2047
691,691,690,691,691,691,691,691,691,691,691,690,691,690,690,689,688,687,688,688,687,687,687,687,687,687,687,686,686,685,685,686,685,685,685,685,685,685,685,685,685,685,685,687,687,687,687,686,687,686,686,686,686,686,685,685,685,685,686,686,686,686,687,687,687,688,688,688,688,688,688,688,688,688,688,688,688,688,688,688,688,688,688,689,689,689,689,689,689,689,689,688,688,688,688,689,689,689,689,689,689,689,688,688,688,689,689,689,689,689,689,689,689,689,689,688,689,689,689,689,689,689,689,690,689,689,689,689,689,689,689,689,689,689,689,689,689,689,689,689,689,689,688,688,688,688,688,688,688,688,688,688,688,687,687,688,687,687,687,687,687,687,687,687,687,687,687,687,687,686,687,686,686,686,686,687,687,687,687,687,686,687,687,687,686,686,686,686,686,686,685,685,685,685,685,685,685,685,685,685,685,685,685,685,685,684,684,2047,2047,2047,2047,2047,2047,2047,2047,617,616,616,615,615,615,615,615,614,615,615,615,615,615,615,614,614,614,614,614,614,614,614,614,616,616,616,616,616,615,615,615,613,614,614,614,613,613,613,613,613,613,613,613,614,614,613,613,613,614,613,614,613,613,613,613,613,613,613,613,613,613,613,613,613,613,612,612,612,612,612,612,612,612,612,612,612,612,612,612,612,612,612,612,612,612,611,612,611,611,611,611,611,611,611,611,611,611,610,610,610,610,610,609,609,609,610,610,610,610,611,611,611,611,611,611,611,611,610,610,610,610,609,610,610,610,609,609,609,610,610,609,609,609,610,610,610,610,610,610,610,610,610,610,610,610,610,610,609,609,609,609,610,609,610,610,610,610,609,609,609,609,609,610,610,610,610,610,610,610,610,610,610,610,609,609,609,609,609,609,610,610,610,609,610,610,610,610,610,610,610,610,610,610,610,610,610,610,610,610,610,610,610,610,610,611,610,611,611,610,610,610,610,610,610,611,611,611,612,612,611,611,611,611,610,610,610,610,610,610,610,610,611,611,611,611,611,611,611,611,612,612,613,614,614,615,614,678,678,677,677,677,677,677,677,677,677,677,677,677,678,678,678,678,678,678,678,678,678,678,678,678,678,678,678,678,678,678,677,677,677,677,677,677,677,677,677,677,677,677,677,677,676,676,677,677,677,677,677,677,677,677,677,676,676,676,676,676,676,676,676,677,677,677,677,677,677,677,676,676,676,675,675,675,675,676,676,676,676,675,676,676,676,676,675,676,676,676,676,676,676,675,676,676,676,676,676,675,675,675,675,674,674,674,674,674,674,674,674,674,674,674,676,676,675,675,675,675,675,675,675,675,675,676,675,675,675,675,675,675,675,674,674,674,675,675,675,675,675,675,675,674,674,674,674,674,673,674,673,673,673,673,674,674,673,673,674,674,673,674,673,673,673,673,673,673,673,2047,2047,2047,2047,2047,2047,2047,2047
690,690,690,690,691,691,691,691,691,691,691,690,691,691,690,689,688,687,687,688,687,687,687,687,687,687,687,686,686,686,685,686,685,685,685,685,685,685,685,685,685,686,685,686,687,687,686,685,686,684,685,685,685,685,685,685,685,685,686,686,686,686,686,687,687,688,688,688,688,688,688,688,688,688,688,688,688,688,688,688,688,688,688,689,688,689,689,688,689,689,689,688,688,688,688,689,689,688,688,689,688,688,688,688,689,689,689,689,689,688,689,689,689,689,689,688,689,689,689,689,689,689,690,690,689,689,689,689,689,689,689,689,689,689,689,689,689,689,689,688,689,689,688,688,688,688,688,688,688,688,688,688,688,687,687,687,687,687,687,687,687,687,687,687,687,687,687,687,687,687,687,686,686,686,686,687,687,687,687,687,687,687,687,687,686,686,686,686,686,686,685,685,685,685,685,685,686,686,686,686,685,685,685,685,685,684,684,2047,2047,2047,2047,2047,2047,2047,2047,617,616,616,616,616,615,615,615,615,615,615,615,615,615,615,615,615,614,614,614,614,614,614,614,615,616,616,616,616,615,615,614,614,614,614,613,613,613,613,613,613,613,613,613,614,614,614,613,613,614,613,614,613,613,614,614,614,613,613,613,613,613,613,613,612,613,612,612,612,612,612,612,612,612,612,612,612,612,612,612,612,612,612,612,612,612,611,611,611,611,611,611,611,611,611,611,611,610,610,610,610,610,610,609,609,610,611,611,611,611,611,611,611,611,611,611,611,611,610,610,610,610,609,609,609,610,609,609,609,609,610,609,609,609,610,610,610,610,610,610,610,610,610,610,610,610,610,610,610,610,610,609,610,609,610,609,610,609,609,609,609,609,610,610,610,610,610,610,610,610,610,610,610,610,609,610,609,609,609,609,610,609,610,609,610,610,610,610,610,610,610,610,610,610,610,610,610,610,610,610,610,610,610,610,610,611,611,611,611,611,610,611,611,610,610,611,611,611,612,612,611,612,611,611,611,610,610,610,610,610,610,610,611,611,611,611,611,611,611,612,612,612,613,614,614,615,614,677,677,677,677,677,677,677,677,677,677,677,677,677,678,678,678,678,678,678,678,678,678,678,678,677,677,678,678,678,678,678,677,677,677,677,677,677,677,677,677,677,677,677,677,677,676,676,676,676,677,677,677,677,677,677,677,676,676,676,676,676,676,676,676,676,677,677,677,677,677,676,676,676,675,675,675,675,675,676,676,676,676,675,676,676,676,676,675,675,676,676,676,676,676,675,676,675,675,675,676,675,675,675,675,674,674,674,674,674,674,674,674,675,674,674,676,676,675,675,675,675,675,675,675,675,675,675,675,675,675,675,675,675,675,675,675,675,675,675,675,674,675,674,674,674,674,674,674,674,673,673,673,673,673,673,673,673,673,673,673,673,673,673,673,673,673,673,673,673,673,2047,2047,2047,2047,2047,2047,2047,2047
690,690,690,690,691,690,690,690,690,691,691,690,691,691,690,689,688,688,688,688,687,687,687,687,687,687,687,686,686,686,686,686,685,685,685,685,685,685,685,685,686,686,685,685,687,687,686,685,686,684,685,685,685,685,685,685,685,685,685,686,686,685,686,686,686,687,687,687,688,687,688,688,688,688,688,688,688,688,688,688,688,688,688,689,689,689,689,688,689,689,689,688,688,689,688,689,689,689,688,688,688,688,688,688,688,689,689,689,689,689,689,689,689,689,689,688,689,689,689,689,689,689,690,689,689,689,689,689,688,689,688,689,689,689,689,689,689,689,688,688,688,688,688,688,688,688,688,688,688,688,688,688,688,687,687,687,687,687,687,686,686,687,687,687,687,687,687,687,687,687,687,687,687,687,686,687,687,687,687,687,687,687,687,686,686,686,686,686,685,685,685,685,685,685,685,686,686,686,685,685,686,685,685,684,684,684,684,683,2047,2047,2047,2047,2047,2047,2047,616,616,616,616,616,615,615,615,615,615,615,615,615,615,615,615,615,614,614,615,614,615,615,616,616,616,616,616,616,615,615,615,614,614,614,613,613,613,613,613,614,613,613,613,613,614,614,613,613,614,614,614,614,614,614,614,614,613,613,613,613,613,613,613,613,613,613,612,612,612,612,612,612,612,612,612,612,612,612,612,612,612,612,612,612,612,611,611,611,611,611,611,611,611,611,611,611,610,610,609,610,610,610,610,610,610,611,611,611,611,611,611,611,611,611,611,611,611,611,611,610,610,610,610,609,610,609,609,609,609,609,609,609,609,609,610,610,609,610,609,610,610,610,610,609,610,610,610,610,610,610,610,610,609,610,609,609,609,609,609,609,609,609,609,610,609,610,610,610,610,610,610,610,610,609,610,609,609,609,609,609,609,610,609,610,610,610,610,610,609,610,610,610,610,610,610,610,610,610,610,610,610,610,610,610,610,610,611,611,611,611,611,611,611,611,611,611,612,612,612,612,612,611,611,611,611,611,611,611,610,611,611,611,611,611,611,611,611,611,612,613,613,613,614,614,615,614,614,677,677,677,677,677,677,677,677,677,677,677,677,678,678,678,678,678,678,678,678,678,678,678,677,677,677,677,677,677,678,677,677,677,677,677,677,677,677,677,677,677,677,676,676,676,676,675,676,676,676,676,676,677,677,677,676,676,676,676,676,676,676,676,677,677,677,677,677,677,677,676,676,676,675,675,675,675,676,676,676,676,675,675,676,676,676,675,676,676,676,676,676,676,675,676,676,676,676,676,676,676,676,675,675,674,674,674,674,674,674,674,675,674,674,676,677,676,675,675,675,675,675,675,675,675,675,675,675,675,675,675,675,675,675,675,674,675,675,675,675,675,674,674,674,674,674,673,673,674,674,674,673,673,673,673,674,673,673,673,673,673,673,673,673,673,673,673,673,673,2047,2047,2047,2047,2047,2047,2047,2047
690,690,690,690,690,690,690,690,690,689,689,688,688,688,688,689,688,687,687,687,687,687,687,687,687,687,686,686,686,686,686,686,685,685,685,685,685,685,685,686,686,686,685,685,687,687,685,685,685,685,685,685,685,685,685,685,685,685,687,686,686,686,686,686,686,687,687,687,687,687,687,688,688,688,688,688,688,688,688,688,688,688,688,688,689,689,689,689,689,689,689,688,688,688,688,688,688,688,688,688,689,689,689,688,689,689,689,689,689,688,689,689,689,689,689,688,689,689,689,689,689,689,689,689,689,689,689,689,688,689,688,688,688,689,689,689,689,689,689,689,689,689,688,688,688,689,688,688,688,688,688,688,688,687,688,687,687,687,687,686,686,687,687,687,687,687,687,687,687,687,688,687,687,687,687,687,687,687,687,687,686,687,686,686,686,686,686,686,685,685,685,685,685,685,685,685,685,685,685,685,685,685,684,684,684,684,683,683,683,2047,2047,2047,2047,2047,2047,616,617,617,616,616,616,615,615,615,615,615,616,616,615,615,615,615,615,614,615,614,615,615,616,616,616,616,615,616,615,615,614,614,614,614,614,613,613,613,613,613,613,613,613,614,614,614,613,613,613,613,613,613,613,613,614,613,613,613,613,613,613,613,613,613,613,613,613,612,612,612,612,612,612,612,612,612,612,612,612,612,612,612,612,612,612,611,611,611,611,611,611,611,611,611,611,611,610,610,610,610,610,610,610,609,610,611,611,611,611,611,611,611,611,611,611,611,611,611,611,611,610,610,610,610,610,609,609,609,609,609,609,609,609,609,610,610,610,610,609,610,610,610,610,610,610,610,610,609,610,610,610,610,609,609,609,609,609,609,609,609,609,609,609,609,609,610,610,610,610,610,610,610,610,610,610,610,609,610,609,610,610,610,610,609,610,609,610,610,609,610,610,610,610,610,610,610,610,610,610,610,610,610,610,610,611,611,611,611,611,611,611,611,611,611,611,611,612,612,612,612,612,612,611,611,611,611,611,611,611,611,611,612,612,612,611,611,611,611,612,612,613,613,614,614,614,614,678,677,677,677,677,677,677,677,677,677,677,677,677,677,678,678,678,677,677,678,678,678,677,678,677,677,677,677,677,677,677,677,677,677,677,677,677,677,677,677,677,677,677,676,676,676,676,675,676,676,676,676,676,676,677,677,677,676,676,676,676,676,676,676,677,677,677,677,677,677,677,676,676,676,675,675,675,675,675,676,676,676,675,675,676,676,676,675,676,676,676,676,676,676,675,676,676,675,675,675,675,675,675,675,674,674,674,674,674,674,674,674,674,674,674,676,677,676,675,675,675,675,675,675,675,675,675,675,675,675,675,675,675,675,675,674,674,675,675,675,674,675,674,674,674,674,674,674,674,674,674,674,674,674,674,674,674,674,673,673,673,673,673,673,673,673,673,673,673,673,2047,2047,2047,2047,2047,2047,2047,2047
691,690,690,691,691,690,690,690,689,689,689,688,688,688,688,688,688,687,687,688,687,687,687,687,687,686,686,686,686,686,685,685,685,685,685,685,685,685,685,686,686,685,685,685,686,685,685,684,685,685,685,685,685,685,685,685,685,686,686,686,687,687,686,686,686,687,687,688,688,688,688,688,688,688,688,688,688,688,688,688,688,688,688,688,689,689,689,689,689,689,689,688,688,688,688,688,688,688,688,688,688,690,689,689,689,689,689,689,689,688,688,688,689,688,689,688,689,689,689,689,689,689,690,689,689,689,689,689,688,689,688,688,688,689,689,689,689,689,689,689,689,689,689,688,688,689,688,688,688,688,688,688,688,687,687,687,687,687,687,686,685,686,686,687,687,687,687,687,687,687,687,687,686,686,686,687,687,687,687,686,686,686,686,686,686,686,686,686,686,685,685,685,685,685,685,685,685,685,685,685,685,685,684,684,684,684,683,683,683,2047,2047,2047,2047,2047,2047,616,617,616,616,616,616,615,615,615,615,615,616,616,616,616,616,615,615,615,615,615,615,615,616,616,616,616,615,616,615,615,615,615,615,614,614,614,613,614,614,614,614,614,614,615,614,613,613,613,613,613,613,613,613,613,614,613,613,613,613,613,613,613,613,613,613,613,613,612,612,612,612,612,612,612,612,613,612,612,612,613,613,612,612,612,612,611,611,611,611,611,611,611,611,611,611,610,610,610,609,609,609,609,609,609,609,611,611,611,611,611,611,611,611,611,611,611,611,611,611,611,610,610,610,610,610,609,609,609,609,609,609,609,609,610,610,610,610,610,610,610,610,610,610,610,610,610,610,609,610,610,609,609,609,609,609,609,609,609,609,609,609,609,609,609,609,609,610,610,610,610,610,610,610,610,610,610,610,610,610,610,610,610,610,610,610,609,610,610,609,610,610,610,610,610,610,610,610,610,610,610,610,610,610,610,610,610,611,611,611,611,611,611,611,611,611,611,612,612,612,612,612,611,611,611,611,611,610,610,610,611,611,611,611,611,611,611,611,611,611,612,612,613,613,614,614,614,678,677,677,677,677,677,677,677,677,677,677,677,677,677,678,678,677,677,677,677,677,677,677,677,677,677,677,677,677,677,678,677,677,677,677,678,677,677,677,677,677,677,676,676,676,675,675,675,676,676,676,676,676,676,677,677,677,676,676,676,676,676,676,676,677,677,677,677,677,677,676,676,676,676,675,675,674,674,675,675,675,675,675,675,675,676,675,675,675,675,676,676,676,675,675,675,675,675,675,675,675,675,675,675,675,674,674,674,674,674,674,674,674,674,674,675,676,675,675,675,675,675,675,675,675,675,675,675,675,675,675,675,675,675,675,674,674,674,675,674,674,674,674,674,674,674,674,674,674,673,674,674,674,674,674,674,674,673,673,673,673,673,672,673,673,673,673,673,672,673,2047,2047,2047,2047,2047,2047,2047,2047
691,691,690,691,691,690,690,690,689,689,689,688,688,688,689,688,688,687,687,688,687,687,687,687,687,686,686,686,686,686,686,686,685,685,685,685,685,685,685,686,686,686,685,685,686,686,685,684,684,684,685,685,685,685,686,686,686,686,686,686,687,686,686,686,686,687,687,688,688,688,688,688,688,688,688,688,688,688,688,688,688,688,688,688,689,689,689,689,689,689,689,689,689,689,688,688,688,688,688,688,689,689,689,689,689,689,689,689,689,688,688,688,689,688,689,688,689,689,689,689,689,689,690,689,689,689,689,689,689,689,688,688,688,688,688,689,689,689,689,689,689,689,688,688,688,688,688,688,688,688,688,688,688,687,687,687,687,687,687,686,686,686,686,687,687,687,687,687,687,687,687,686,686,685,685,687,685,687,686,686,686,686,686,686,686,686,685,686,685,685,685,685,685,685,685,685,685,685,685,685,685,685,684,684,684,684,683,683,681,2047,2047,2047,2047,2047,2047,617,617,617,616,616,616,615,615,615,615,615,616,616,616,616,616,616,615,615,615,615,615,615,615,615,616,616,615,615,615,615,615,615,615,614,614,614,613,614,614,614,614,614,614,614,614,614,613,613,613,613,613,613,613,613,613,613,613,613,613,613,613,613,613,613,613,613,613,612,612,612,612,612,612,612,612,613,613,613,613,612,612,612,612,612,612,611,611,611,611,611,611,611,611,610,611,610,610,610,609,609,609,609,609,609,609,611,611,611,611,611,611,611,611,611,611,611,611,611,611,611,611,610,610,610,610,609,609,609,609,609,609,609,609,610,610,610,610,610,610,610,610,610,610,610,610,610,610,610,610,610,609,609,609,609,609,609,609,609,609,609,609,609,609,609,609,609,609,610,610,610,610,610,610,610,610,610,609,610,610,610,610,610,610,610,610,610,610,610,610,610,610,610,610,610,610,610,610,610,610,610,610,610,610,611,611,611,611,611,611,611,610,611,611,611,611,611,612,612,612,612,612,611,611,611,610,610,610,610,610,611,611,611,611,612,611,611,611,611,611,612,612,612,613,613,613,613,677,677,677,677,677,677,677,677,677,677,677,677,677,677,677,677,677,677,677,677,677,677,677,677,677,677,677,677,677,677,677,677,677,678,678,678,678,677,677,677,677,677,676,676,676,675,675,675,675,676,676,676,676,676,677,677,676,676,676,676,676,676,676,676,676,677,677,677,677,677,676,676,676,676,675,675,674,674,675,674,674,674,674,675,675,675,675,675,675,675,675,675,675,675,675,675,675,675,675,675,675,675,675,675,674,674,674,674,674,674,674,674,674,674,674,675,676,675,675,675,675,675,674,675,675,675,675,675,675,675,675,675,675,675,675,674,674,674,675,674,674,674,674,674,674,674,674,674,674,673,673,674,673,674,674,674,673,673,673,673,673,673,672,673,672,673,672,673,673,673,2047,2047,2047,2047,2047,2047,2047,2047
691,690,690,691,690,690,689,689,689,689,689,688,688,688,689,688,688,687,688,688,687,687,687,687,687,686,686,686,686,686,685,685,685,685,685,685,685,685,685,686,686,685,685,685,685,685,684,684,684,684,684,685,685,686,686,687,687,687,686,687,687,687,686,686,687,688,688,688,688,688,688,688,688,688,688,688,688,688,688,688,688,688,689,689,689,689,688,689,689,689,689,688,688,689,688,688,688,688,688,688,689,689,689,688,689,689,689,689,689,688,689,689,689,689,689,689,689,689,689,689,689,689,690,689,689,689,689,689,689,689,688,688,688,688,688,688,688,688,688,688,688,688,688,688,688,688,688,688,688,688,688,688,688,687,687,687,687,687,687,687,686,686,686,687,687,687,687,687,687,687,687,686,686,686,685,687,685,687,686,686,686,686,686,686,685,685,685,685,685,685,685,685,685,685,685,685,685,685,684,685,685,684,684,684,684,684,683,683,681,2047,2047,2047,2047,2047,2047,616,617,617,616,616,616,615,615,615,615,615,616,616,616,616,616,616,615,615,615,614,615,615,615,615,615,615,615,615,615,615,614,615,615,615,614,614,614,614,614,614,614,614,613,613,614,613,613,614,613,613,613,613,613,613,613,613,613,613,613,613,613,613,613,613,613,613,612,612,612,612,612,612,612,612,612,613,613,613,612,612,612,612,612,612,612,611,611,611,611,611,611,611,610,610,610,610,610,610,609,609,609,609,609,609,609,611,611,611,611,611,611,611,611,611,611,611,611,611,611,611,610,610,610,610,610,609,610,609,609,609,609,609,609,609,609,609,610,610,610,610,610,610,610,610,610,610,610,609,610,610,609,609,609,609,609,609,609,609,609,609,609,609,609,609,609,610,610,610,610,609,610,610,610,610,610,610,610,610,609,610,610,610,610,610,610,610,610,610,610,610,610,610,610,610,610,610,610,610,610,610,610,610,610,610,610,610,611,611,611,611,610,611,611,611,611,611,611,611,612,611,611,611,611,611,611,610,610,610,610,611,611,611,611,611,611,611,611,611,611,611,612,613,613,613,614,613,677,677,677,677,677,677,677,677,677,677,677,677,677,677,677,677,677,677,677,677,677,677,677,677,677,677,677,677,677,677,677,677,677,677,678,678,677,677,677,677,677,676,676,675,675,675,675,675,675,675,676,676,676,676,676,677,676,676,676,676,676,676,676,676,676,676,677,677,677,676,676,675,675,675,675,675,674,674,675,674,674,674,674,675,675,675,675,675,675,675,675,675,675,675,675,675,675,675,675,675,675,675,675,675,674,674,674,674,674,674,674,674,674,674,674,675,675,675,675,675,675,674,674,675,675,675,675,675,675,675,675,675,675,675,675,674,674,674,675,674,674,674,674,674,674,674,674,674,674,674,673,674,674,674,674,674,675,674,673,673,673,673,672,673,673,673,673,673,673,673,2047,2047,2047,2047,2047,2047,2047,2047
691,690,690,690,690,690,689,689,689,688,689,688,688,688,688,688,688,688,688,688,687,687,687,687,687,686,686,686,686,686,685,685,685,685,685,685,685,685,685,685,686,685,685,685,685,685,684,684,684,685,685,685,686,686,687,687,687,687,686,687,687,687,686,686,686,687,688,688,688,688,688,688,688,688,688,688,688,688,688,688,688,689,689,689,689,689,688,689,689,689,689,688,688,688,688,688,688,688,688,689,689,689,689,688,689,688,688,689,689,688,689,689,689,689,689,688,689,689,689,689,689,689,689,689,689,689,689,689,689,689,688,688,688,688,688,688,688,688,688,688,688,688,688,688,688,688,688,688,688,688,688,688,688,687,687,687,687,687,687,686,686,686,686,686,687,687,687,687,687,687,686,686,686,686,685,686,685,686,685,685,685,685,685,685,685,685,685,685,685,685,685,685,685,685,685,685,685,685,684,684,685,684,684,684,684,684,683,683,681,2047,2047,2047,2047,2047,2047,617,617,617,616,616,616,615,615,615,615,615,615,616,616,616,616,616,615,615,615,615,615,615,615,616,615,616,615,615,615,615,615,615,615,615,614,614,614,614,614,614,614,614,614,614,614,614,614,613,613,613,613,613,613,613,613,613,613,613,613,613,613,613,613,613,613,613,613,612,612,612,612,612,612,612,612,613,613,613,613,613,612,612,612,612,612,612,611,611,611,611,611,611,611,610,610,610,610,609,609,609,609,609,609,610,610,611,611,611,611,611,611,611,610,610,611,611,610,610,610,611,610,610,610,610,610,610,610,609,609,609,609,609,609,610,610,610,610,610,610,610,610,610,610,609,610,610,610,609,610,610,610,610,609,609,609,609,609,609,609,609,609,609,609,609,610,610,610,610,610,610,610,609,609,610,610,610,609,609,609,610,610,610,610,610,610,610,610,610,609,609,610,610,610,610,610,610,610,609,609,610,610,610,610,610,610,610,610,610,610,610,610,610,611,611,611,611,611,612,612,611,611,611,610,610,610,610,610,610,610,611,611,611,611,611,611,611,611,611,612,612,612,613,613,613,614,614,678,677,677,677,677,677,676,676,676,676,676,676,676,677,677,677,677,677,677,677,677,677,677,677,677,677,677,677,677,677,677,677,677,677,678,678,677,677,677,677,677,677,676,676,676,675,675,675,675,675,675,676,676,676,676,676,676,676,676,676,676,676,676,676,676,676,676,676,676,676,676,675,675,675,675,675,674,675,675,674,674,674,674,675,675,675,675,675,675,675,675,675,675,675,675,675,675,675,675,675,674,674,674,675,674,674,674,674,674,674,674,674,674,674,674,675,675,675,675,675,675,674,674,675,674,674,674,675,675,675,675,675,675,675,675,675,675,675,675,674,674,674,674,674,675,675,674,674,674,674,674,674,674,674,674,673,673,673,673,673,673,672,673,673,673,673,673,673,673,672,2047,2047,2047,2047,2047,2047,2047,2047
691,690,690,690,690,689,689,689,688,689,689,688,688,688,688,688,688,688,688,688,687,687,687,686,686,685,686,685,685,685,685,685,684,685,684,684,685,685,685,685,685,685,685,684,684,685,685,685,685,685,686,685,686,686,687,687,687,687,686,687,687,687,686,686,686,687,688,688,688,688,688,688,688,688,688,688,688,688,688,688,688,688,688,689,688,688,688,688,688,688,688,688,688,688,688,688,688,688,688,689,689,689,689,689,689,689,689,689,689,688,688,689,689,688,688,688,689,689,689,689,689,689,689,689,689,688,689,689,689,688,688,688,688,688,688,688,688,688,688,688,688,688,688,688,688,688,688,688,688,688,688,688,688,688,688,688,688,687,687,686,686,686,686,686,686,686,686,687,687,686,686,686,686,686,685,686,686,686,685,685,685,685,685,685,685,685,685,685,685,685,685,685,685,685,685,685,685,685,684,684,684,684,684,684,684,684,683,683,681,2047,2047,2047,2047,2047,2047,617,617,617,616,616,616,615,615,615,615,615,616,616,616,616,616,616,615,615,615,615,615,615,615,616,616,615,615,615,615,615,615,615,615,615,614,614,614,614,614,614,614,614,614,614,614,614,614,614,614,613,613,613,613,613,613,613,613,613,613,613,613,613,613,613,613,613,613,612,612,612,613,613,613,613,613,613,613,612,613,612,612,612,612,612,612,612,611,611,611,611,611,611,611,610,610,610,609,609,609,609,609,609,609,610,610,611,611,611,611,611,611,611,610,610,610,610,610,610,610,610,610,610,610,610,610,610,610,609,609,609,609,609,609,610,609,610,610,610,610,610,610,610,610,610,610,610,610,610,610,610,610,610,609,609,609,609,609,609,609,609,609,609,609,610,610,610,610,610,610,609,610,610,610,610,610,610,610,610,609,610,610,610,610,610,610,610,610,610,609,610,610,610,610,610,610,610,610,610,609,610,610,610,610,610,610,610,611,610,610,610,610,610,611,610,610,611,611,611,612,611,611,610,610,610,610,610,610,610,610,611,611,611,611,611,611,612,611,612,612,612,613,613,613,613,613,613,613,677,677,677,677,677,676,676,676,676,676,676,676,676,677,677,677,677,677,677,677,677,677,677,677,677,677,677,677,677,677,677,677,677,678,677,677,677,677,677,677,677,676,676,676,675,675,675,675,675,675,675,676,676,676,676,676,676,675,675,676,676,676,676,676,676,676,676,676,676,675,675,675,675,675,675,674,674,674,674,674,674,674,674,674,675,674,674,674,674,675,675,675,675,675,675,675,675,675,674,674,674,674,674,674,674,674,674,674,674,674,674,674,674,675,675,675,675,675,675,675,674,674,675,675,674,674,675,674,674,675,674,675,675,675,674,674,675,675,674,674,674,674,674,674,674,674,674,674,674,674,674,674,673,673,673,673,673,673,673,673,673,673,673,673,673,673,673,672,672,2047,2047,2047,2047,2047,2047,2047,2047
691,691,691,691,691,689,688,688,688,688,688,688,688,688,687,688,688,688,688,688,687,687,687,686,686,685,686,685,685,685,684,684,684,684,684,684,684,685,685,685,685,685,684,684,684,685,685,686,685,686,686,686,686,686,687,687,687,687,687,687,687,687,686,686,686,687,688,688,688,688,688,688,688,688,688,688,689,688,689,688,688,688,688,688,688,688,688,688,688,689,688,688,688,689,689,688,688,688,688,689,689,689,689,689,689,689,689,689,689,688,688,688,689,688,688,688,688,689,689,689,689,689,689,689,689,688,688,689,689,689,688,688,688,689,688,688,688,688,688,688,688,688,688,688,688,688,688,688,688,688,688,688,688,688,688,688,688,687,688,687,686,686,686,686,686,686,686,687,687,686,686,686,685,686,685,686,686,686,685,685,685,685,685,685,685,685,685,685,684,684,684,684,685,685,685,685,685,684,684,684,684,684,684,684,684,684,683,682,682,2047,2047,2047,2047,2047,2047,617,617,617,617,616,616,615,614,615,615,615,615,616,616,616,616,615,615,615,616,615,616,615,616,616,616,616,615,615,615,615,615,615,615,614,614,614,614,614,614,614,614,614,614,614,614,614,614,614,613,613,613,613,613,613,613,613,613,613,613,613,613,613,613,613,613,613,613,612,612,612,613,613,613,613,613,613,613,613,613,613,612,612,612,612,612,612,612,612,611,611,611,611,610,610,610,610,610,609,609,609,609,610,610,610,610,612,611,612,611,611,611,611,610,610,610,610,610,610,610,610,610,610,610,610,610,610,610,610,610,609,610,609,609,609,609,610,610,610,610,610,610,610,610,610,610,610,610,610,610,609,609,610,609,609,609,609,609,609,609,609,609,609,609,609,609,609,609,609,609,609,609,610,610,610,610,610,610,610,610,609,609,609,610,610,610,610,610,610,610,609,610,610,610,610,610,610,610,610,610,610,610,610,610,610,610,610,610,610,610,610,610,610,610,610,610,611,610,610,611,610,610,610,610,610,610,610,610,610,611,611,611,611,611,611,611,611,611,611,612,612,612,613,613,613,613,613,613,677,677,677,677,677,676,676,676,676,676,676,676,676,676,677,677,676,676,676,677,677,677,677,677,677,677,677,677,677,677,677,677,677,677,677,677,677,677,677,677,676,676,675,675,675,675,675,675,675,675,676,676,676,676,676,676,675,675,675,675,676,676,676,676,676,676,676,676,676,675,675,675,675,675,675,674,674,674,674,674,674,674,674,674,675,675,674,674,674,674,675,675,675,674,674,674,675,675,674,674,674,674,674,674,674,674,674,674,674,674,674,674,675,675,675,675,675,675,675,675,675,675,675,675,675,674,674,674,674,674,674,674,674,675,674,674,674,675,674,674,674,674,674,675,675,674,674,674,674,674,674,673,674,673,674,674,674,673,673,673,673,673,674,673,673,674,673,672,672,2047,2047,2047,2047,2047,2047,2047,2047
691,691,691,691,691,690,688,688,688,688,688,688,688,687,687,687,687,687,687,687,687,686,686,686,686,685,685,685,684,684,684,684,684,684,684,684,684,685,684,685,685,685,684,684,684,684,686,686,685,685,686,686,686,686,686,686,687,687,687,687,686,687,686,687,686,688,688,688,688,688,688,688,688,688,688,688,689,689,689,689,688,688,688,688,688,688,688,688,688,688,688,688,688,688,689,688,688,688,688,689,689,689,689,689,689,689,689,689,688,688,688,688,689,688,688,688,688,689,689,689,689,689,689,689,689,688,688,689,689,689,688,688,688,688,688,688,688,688,688,688,688,688,688,688,688,688,688,687,687,688,688,688,688,688,688,688,688,687,687,687,687,686,686,686,686,686,686,686,686,686,685,685,685,685,685,685,685,686,685,685,685,685,685,685,685,685,685,685,684,684,685,684,684,684,684,684,685,684,684,684,684,684,684,684,684,683,683,682,681,2047,2047,2047,2047,2047,2047,617,617,617,616,616,616,615,615,615,615,615,615,616,616,616,616,615,616,616,615,615,615,615,615,616,615,615,615,615,615,615,615,615,615,615,615,614,614,614,614,614,614,614,614,614,614,614,614,613,613,613,613,613,613,613,612,613,613,613,613,613,613,613,613,613,613,613,613,612,612,612,612,612,612,613,613,613,613,613,613,612,612,612,612,612,612,612,611,612,611,611,611,611,610,610,610,609,610,609,609,609,610,610,610,610,610,611,611,611,611,611,611,610,610,610,610,610,610,610,610,611,610,610,610,610,610,610,610,610,610,610,610,610,610,610,610,610,610,610,610,610,610,610,610,610,610,610,610,610,609,609,609,610,609,609,609,609,609,610,609,609,609,609,609,609,609,609,609,609,609,609,609,610,610,610,610,610,610,610,609,609,609,609,609,610,610,610,610,610,610,610,610,610,610,610,610,610,610,610,610,610,610,611,610,610,610,610,610,610,610,610,610,610,610,610,610,610,610,610,611,610,610,610,610,610,610,610,610,610,611,611,611,611,611,611,611,611,611,611,611,611,612,612,613,613,613,613,613,677,677,676,676,676,676,675,676,676,676,676,676,676,676,677,676,676,676,676,677,677,677,677,677,676,676,677,676,677,676,676,677,677,677,677,677,677,676,676,676,676,676,675,675,675,675,675,675,675,675,676,676,676,676,676,676,675,675,675,675,675,675,675,675,675,675,675,675,675,675,675,675,675,675,675,674,674,674,674,674,674,674,674,674,674,674,674,674,674,674,674,674,674,674,674,674,674,674,674,674,674,674,674,674,674,674,674,674,674,674,674,674,674,674,675,675,675,675,675,675,675,675,675,675,675,674,674,674,674,674,674,674,674,674,674,674,674,675,674,674,674,674,674,675,675,674,674,674,674,674,674,673,674,674,674,673,674,673,672,673,673,673,673,673,673,673,673,672,672,2047,2047,2047,2047,2047,2047,2047,2047
691,691,691,691,690,689,688,688,688,688,688,688,688,688,688,688,687,687,687,687,687,686,686,686,685,685,685,685,684,684,684,684,684,684,684,684,684,684,684,684,684,684,684,684,684,686,686,686,685,685,685,685,686,686,686,687,687,687,687,687,686,687,686,687,686,688,688,688,688,688,688,688,688,688,688,688,688,688,689,689,689,689,688,688,688,688,688,688,688,688,688,688,688,688,689,688,688,688,689,689,689,688,688,688,688,688,689,689,689,688,688,689,689,688,688,688,688,689,689,689,689,689,689,689,689,688,688,688,689,688,688,688,688,688,688,688,688,688,688,688,688,688,688,688,687,687,687,687,687,687,687,687,687,687,687,688,688,688,688,686,687,686,687,686,686,686,686,686,687,686,686,686,685,686,685,686,685,685,685,685,685,685,685,685,685,685,685,685,684,684,685,684,684,684,684,684,684,684,684,684,684,684,684,684,684,684,683,682,682,2047,2047,2047,2047,2047,2047,617,617,617,616,616,616,615,615,615,615,615,615,616,616,616,616,616,616,616,616,615,616,615,616,616,615,615,615,615,615,616,615,615,615,615,614,614,614,614,614,614,614,614,614,614,614,614,614,614,614,613,613,613,613,613,613,613,613,613,613,613,613,613,613,613,613,613,613,612,612,612,613,613,613,613,613,613,613,613,613,612,612,612,612,612,612,612,612,612,611,611,611,611,610,610,610,609,610,609,609,609,610,610,610,610,610,612,611,611,611,611,611,611,610,610,610,610,610,610,610,610,610,610,610,610,610,610,610,610,610,610,610,610,610,610,610,610,610,610,610,610,610,609,609,610,610,610,609,609,609,609,609,610,609,609,609,609,609,610,610,610,610,609,609,610,609,609,609,609,609,609,610,610,610,610,610,610,609,609,609,609,609,609,609,610,610,610,610,610,610,609,610,609,610,610,610,610,610,610,610,610,610,611,610,611,610,611,610,610,610,610,610,610,610,610,610,610,610,610,610,610,610,610,610,610,610,610,610,610,610,611,611,611,610,610,610,610,610,611,611,611,612,612,613,613,614,614,613,614,677,676,676,676,676,676,676,676,676,676,676,676,676,676,676,676,676,676,676,677,676,676,676,676,676,676,676,676,676,676,676,677,677,677,677,676,676,676,676,676,676,675,675,675,675,675,675,675,675,676,676,676,676,676,676,675,675,675,675,675,675,675,675,675,675,675,675,675,675,674,674,675,675,675,674,674,674,674,674,674,674,674,674,674,674,674,674,674,674,674,674,674,674,674,674,674,674,674,674,674,674,674,674,674,674,673,674,674,674,674,674,674,674,675,675,675,675,675,675,675,675,675,675,674,674,674,674,674,674,674,674,674,675,675,675,675,675,675,674,674,674,674,675,675,674,674,674,674,673,674,673,673,673,673,673,673,672,672,673,672,672,673,673,673,673,673,672,672,2047,2047,2047,2047,2047,2047,2047,2047
691,691,691,691,691,688,688,688,688,688,688,688,688,688,688,688,687,687,687,687,687,686,686,686,685,685,685,685,684,684,684,684,684,684,683,684,684,684,684,684,684,685,684,685,685,686,686,686,685,685,686,686,686,686,687,687,687,687,687,687,686,687,686,686,686,687,688,688,688,688,688,688,688,688,688,688,688,688,688,688,688,688,688,688,688,688,688,688,688,688,688,688,688,688,689,689,688,688,689,689,689,688,689,689,689,689,689,689,689,688,688,688,689,688,688,688,688,689,689,689,689,689,689,689,689,688,688,688,689,688,688,688,688,688,688,688,688,688,688,688,688,688,688,687,687,687,687,687,686,687,687,687,687,688,687,688,688,687,687,686,687,686,687,686,686,686,686,686,686,686,686,686,686,686,685,685,685,685,685,685,685,685,685,685,685,685,685,685,685,685,685,684,684,684,684,685,684,684,684,684,684,684,684,684,684,684,684,684,683,683,2047,2047,2047,2047,617,617,617,617,616,616,616,616,615,615,615,615,615,616,616,616,616,615,616,616,616,615,616,615,615,616,615,615,615,615,615,616,615,615,615,615,614,614,614,614,614,614,613,614,613,613,614,614,614,613,614,613,613,613,613,613,613,613,613,613,613,613,613,613,613,613,613,613,613,613,613,613,613,612,612,612,612,612,613,613,613,612,612,612,612,612,612,612,612,612,611,611,611,611,610,610,610,609,610,609,609,609,610,610,610,610,610,611,611,611,611,611,611,611,610,610,610,610,610,610,610,610,610,610,610,610,610,610,610,609,610,610,610,610,609,610,610,610,610,610,610,610,609,609,609,610,610,610,609,609,609,609,609,610,609,609,609,609,609,610,609,610,610,609,609,610,610,610,610,610,610,610,610,609,609,609,609,609,609,609,609,609,609,609,609,610,610,610,610,610,610,609,609,609,610,610,609,610,610,610,610,610,610,610,611,611,611,611,611,610,610,610,610,610,610,610,610,610,610,610,610,610,610,610,610,610,610,610,610,610,610,611,611,611,610,611,610,610,610,611,611,611,612,612,613,613,614,614,614,614,677,676,676,676,676,675,676,676,676,676,676,676,676,676,676,676,676,676,676,677,677,676,676,676,676,676,675,676,675,676,676,676,676,676,676,676,676,675,676,675,675,675,675,675,675,675,675,675,675,676,676,676,676,676,676,676,675,675,675,675,675,675,675,674,674,675,674,674,675,675,675,675,675,675,675,675,674,674,674,674,674,674,674,674,674,674,674,674,674,674,674,674,674,674,674,674,674,674,673,674,674,674,674,674,673,673,674,674,674,674,674,674,674,675,675,675,675,675,675,675,675,674,674,674,674,674,674,674,674,674,674,675,675,675,675,675,675,675,674,674,674,674,674,674,674,674,674,674,673,674,673,673,673,673,672,672,672,672,672,672,672,673,673,673,673,672,672,671,2047,2047,2047,2047,2047,2047,2047,2047
691,691,691,691,691,689,689,688,688,688,688,688,688,688,688,688,687,687,687,687,687,686,687,686,686,685,685,685,684,684,684,684,684,684,684,684,684,684,684,684,684,684,684,684,684,684,687,686,686,686,686,686,686,686,686,686,686,686,686,686,685,686,685,686,686,687,687,687,688,688,688,688,688,687,688,688,688,688,688,688,688,688,688,688,688,688,688,688,688,688,688,688,688,688,688,688,688,688,688,688,688,688,688,688,688,688,689,689,689,688,688,688,688,688,688,688,688,689,689,689,689,689,689,689,689,688,688,688,688,688,688,688,688,688,688,688,688,687,687,687,687,688,688,687,687,687,687,687,687,687,687,687,687,688,687,687,688,687,687,686,687,686,686,686,686,686,686,686,686,686,685,686,686,685,685,685,685,685,685,685,685,685,685,685,685,685,685,685,685,685,685,684,684,685,684,685,685,684,685,684,684,685,685,684,684,684,684,684,684,684,2047,2047,2047,2047,617,617,617,617,616,616,616,615,615,615,615,615,615,616,616,616,616,616,616,616,616,616,616,615,616,616,615,615,616,616,615,616,616,615,615,615,615,615,615,614,614,614,614,613,614,613,613,614,614,614,614,613,613,613,613,613,613,613,613,613,613,613,613,613,613,613,613,613,613,612,613,612,612,612,612,613,612,613,613,613,613,612,612,612,612,612,612,612,612,611,611,611,611,611,610,610,610,610,610,610,610,609,610,610,610,611,610,611,611,611,611,611,611,610,610,610,610,610,610,610,610,610,610,610,610,610,610,610,610,609,610,610,610,610,610,610,610,610,610,610,610,610,610,610,610,610,610,609,609,609,609,609,609,609,609,609,609,609,609,610,610,610,610,609,609,610,609,610,609,609,609,609,609,609,609,609,609,609,609,609,609,609,609,609,609,610,610,609,610,610,610,610,609,609,610,610,609,610,610,610,610,610,610,610,610,610,610,610,611,610,610,610,610,610,610,610,610,610,610,610,610,610,610,610,610,610,610,610,610,610,611,611,611,611,611,611,610,611,611,611,611,612,612,613,613,614,614,614,614,614,677,677,676,676,676,675,676,676,676,676,676,676,676,676,676,675,675,676,676,676,676,676,676,676,676,676,675,676,675,676,676,676,676,676,676,675,676,675,675,675,675,675,675,675,675,675,675,675,675,675,676,675,676,676,676,675,675,674,675,675,675,674,675,675,675,675,675,675,675,675,675,675,675,675,675,675,674,675,674,674,675,675,674,674,674,674,674,674,674,674,675,674,674,674,674,674,674,674,673,674,674,674,674,674,674,674,674,674,674,674,674,674,674,675,675,675,675,675,675,675,675,674,674,674,674,674,674,674,674,674,674,674,675,675,675,675,675,675,674,674,674,674,674,674,674,674,674,674,673,674,673,673,673,672,672,672,672,672,672,672,672,673,673,673,673,672,672,672,2047,2047,2047,2047,2047,2047,2047,2047
691,691,691,691,691,690,689,688,688,688,688,688,688,688,688,688,687,687,687,687,687,686,687,686,685,685,685,685,684,684,684,684,684,684,684,684,684,684,684,684,684,684,684,684,685,685,685,686,686,685,685,685,686,686,686,685,686,686,686,686,685,686,685,686,686,687,687,687,687,687,688,688,688,687,688,688,688,688,688,688,688,688,688,688,688,688,688,688,689,688,688,688,688,688,688,688,688,688,689,688,688,688,688,688,688,688,688,688,688,688,688,688,688,688,688,688,688,688,689,689,689,689,689,689,689,688,688,688,688,688,688,688,688,688,688,688,688,687,687,687,687,688,688,688,687,687,687,687,687,687,687,687,687,687,687,687,687,687,686,686,686,686,686,686,686,685,685,686,686,686,685,685,685,685,685,685,685,685,685,685,685,685,685,685,685,685,685,685,685,685,684,684,684,684,684,684,684,684,684,684,684,685,685,685,685,684,684,684,684,684,684,2047,2047,2047,618,616,617,617,616,616,616,616,615,615,615,615,615,616,616,616,616,616,616,616,616,616,616,616,616,616,615,616,616,616,615,616,616,616,616,615,615,615,615,614,614,614,614,614,614,613,613,614,613,614,614,613,613,613,613,613,613,613,613,613,612,612,612,613,613,613,613,613,613,613,613,613,613,613,613,613,613,613,613,613,612,612,612,612,612,612,612,612,612,612,611,611,611,610,610,610,610,610,610,610,610,610,610,610,610,611,611,611,611,612,611,611,611,610,610,610,610,610,610,610,610,610,610,610,610,610,610,610,610,610,610,610,610,610,610,610,610,610,610,610,610,610,610,610,610,610,610,609,609,609,609,609,609,609,609,609,609,609,609,609,609,610,610,609,609,610,610,610,609,609,609,610,610,609,609,609,609,609,609,609,609,609,609,609,609,609,609,610,610,610,609,609,609,609,610,610,609,610,610,610,610,610,610,611,611,611,610,611,611,611,610,610,610,610,610,610,610,610,610,610,610,610,610,610,610,610,610,610,610,611,611,611,611,611,611,611,610,611,611,611,611,611,612,613,613,614,614,614,614,615,677,676,675,675,676,676,676,676,676,676,676,676,676,676,676,676,676,676,676,676,676,676,676,676,676,676,675,676,675,675,676,676,676,676,676,675,676,675,675,675,675,675,675,675,675,675,675,675,676,676,676,676,676,676,676,676,675,675,675,675,675,675,675,675,675,675,675,675,675,675,674,675,675,675,675,675,674,675,674,674,675,675,674,674,674,675,674,674,674,674,675,675,675,674,674,674,674,674,673,674,674,674,674,674,674,674,674,674,674,674,674,674,674,675,675,675,675,675,675,675,675,674,675,674,674,674,674,674,674,674,674,674,675,675,675,675,675,675,674,674,674,674,674,674,674,674,674,674,673,673,673,673,673,672,672,672,671,672,672,672,672,672,673,672,672,672,671,671,2047,2047,2047,2047,2047,2047,2047,2047
691,691,691,691,691,690,689,688,688,688,688,688,688,687,687,688,687,687,687,687,687,686,687,685,685,685,685,684,684,684,684,684,684,684,683,684,684,684,685,685,684,684,684,684,684,684,685,685,685,685,685,685,686,685,685,685,685,685,685,685,685,685,685,685,685,686,686,686,687,687,687,687,687,687,688,688,688,688,688,688,688,688,688,688,688,688,688,688,688,688,688,688,688,688,688,688,688,688,688,688,688,688,688,688,688,688,688,688,688,688,688,688,688,688,688,688,688,688,688,689,688,689,688,689,689,688,688,688,688,688,688,688,688,688,688,687,687,687,687,687,687,688,687,687,687,687,687,687,687,687,687,687,687,687,687,687,687,687,687,686,686,686,686,686,686,686,686,686,686,685,685,685,685,685,685,685,685,686,685,685,686,685,686,685,685,685,685,685,685,685,685,684,684,684,684,684,684,684,684,684,684,685,685,684,685,684,683,684,684,683,683,2047,2047,2047,619,618,617,617,617,616,616,616,615,616,616,616,616,616,616,616,616,616,616,616,616,615,616,615,616,616,615,616,616,616,615,616,616,616,616,615,615,615,615,614,614,614,614,614,613,613,613,614,614,614,614,613,613,613,613,613,613,613,613,612,612,612,613,613,613,613,613,613,613,612,613,613,612,612,613,613,613,613,613,612,612,612,612,612,612,612,612,612,611,611,611,611,610,610,610,610,610,610,610,610,610,610,611,611,611,610,611,612,611,612,611,611,611,610,610,610,610,610,610,610,610,610,610,610,610,610,610,610,610,610,610,610,610,610,610,610,610,610,610,610,610,610,610,610,610,610,609,609,609,609,609,609,609,609,609,609,609,609,609,609,609,609,610,609,610,609,609,609,609,609,609,609,609,609,609,609,609,609,609,609,609,609,609,609,609,609,609,610,609,610,610,610,609,610,610,610,610,610,610,610,610,610,610,611,611,611,610,611,611,611,610,610,610,610,610,610,610,610,610,610,610,610,610,610,610,610,610,610,611,611,611,611,611,611,611,611,611,611,611,611,611,612,612,613,613,614,614,614,614,677,676,676,675,675,676,676,676,676,676,676,676,676,676,676,676,676,676,676,676,676,676,676,676,676,676,675,675,675,675,675,675,675,675,675,675,675,675,675,675,675,675,675,675,675,675,675,675,675,675,675,675,675,676,676,676,676,675,675,675,675,675,675,675,675,675,675,675,675,675,675,674,675,674,674,675,675,674,674,674,674,674,674,674,674,674,675,674,674,674,674,675,675,674,674,674,674,674,674,673,674,674,674,674,674,674,674,674,674,674,674,674,674,673,675,674,674,675,674,675,674,675,674,675,674,674,674,674,674,674,674,674,674,674,674,675,674,674,674,674,674,674,674,674,674,674,673,673,673,673,673,673,672,672,672,672,672,671,671,672,672,672,672,672,672,672,671,671,671,2047,2047,2047,2047,2047,2047,2047,2047
690,690,690,690,690,689,689,688,688,688,688,688,688,687,687,688,687,687,687,687,687,686,687,686,686,686,685,684,684,684,684,684,684,684,684,685,684,684,685,685,685,685,684,684,684,684,684,684,684,684,684,685,685,685,685,685,685,685,685,685,685,685,685,685,685,685,686,686,686,686,686,686,686,686,686,687,688,688,688,688,688,688,688,688,688,688,688,688,688,688,688,688,688,689,688,688,688,688,688,688,688,688,688,688,688,688,688,688,688,688,688,688,689,688,688,688,688,688,688,689,688,688,688,689,689,688,688,688,688,688,688,688,688,688,688,687,687,686,686,687,687,687,687,687,687,687,687,687,687,687,687,687,687,687,687,687,687,686,686,686,686,686,686,686,686,686,686,686,686,686,685,685,685,685,685,685,685,685,685,685,685,685,685,685,685,685,685,685,685,685,685,684,684,684,684,684,684,684,684,684,684,684,684,684,684,684,683,683,683,683,683,2047,2047,2047,618,617,617,617,616,616,616,616,615,615,615,615,616,616,615,616,616,616,616,616,616,616,616,616,616,616,616,616,616,616,615,616,616,616,616,615,615,615,615,614,614,614,614,614,614,613,613,614,614,614,614,613,613,613,613,613,613,613,613,613,612,613,613,613,612,612,613,613,613,612,612,613,612,612,612,612,612,613,613,612,612,612,612,612,612,612,612,611,611,611,610,610,610,610,609,610,610,610,610,610,610,610,611,611,611,611,611,612,611,612,611,611,610,610,610,610,610,610,610,610,610,610,610,610,610,610,610,610,610,610,610,610,610,610,610,610,609,610,610,610,610,610,610,610,609,609,609,609,609,609,609,609,609,609,609,609,609,609,609,609,609,610,610,609,610,610,610,609,609,609,609,609,609,609,609,609,609,609,609,609,609,609,609,609,609,609,610,610,609,610,609,610,609,609,609,610,609,610,610,610,610,610,610,610,611,611,610,610,610,611,610,610,610,610,610,610,610,610,610,610,610,610,610,610,610,610,610,610,611,611,611,611,611,611,611,610,610,610,610,610,610,611,612,612,613,614,614,614,614,676,675,675,675,675,675,675,676,676,676,675,676,676,676,676,676,676,676,675,675,675,676,676,676,676,676,675,675,675,675,675,675,675,675,675,675,675,675,675,674,675,675,675,675,675,675,675,675,675,675,675,675,675,675,676,676,675,675,675,675,675,675,675,675,675,675,675,675,675,675,675,674,675,675,674,675,675,674,674,674,674,674,674,674,674,675,675,674,675,674,675,675,674,675,675,674,674,674,674,674,674,674,674,674,674,674,673,674,674,674,674,674,674,673,675,674,674,675,674,674,674,675,674,675,674,674,674,674,674,674,674,674,674,674,674,675,674,674,674,674,674,675,674,674,674,674,673,673,673,673,673,672,672,672,672,672,671,671,671,672,672,671,671,672,672,671,671,671,671,2047,2047,2047,2047,2047,2047,2047,2047
690,690,690,689,690,689,689,688,688,688,688,688,688,687,688,688,687,687,687,687,686,686,686,686,685,685,685,684,684,684,684,684,684,684,684,685,684,684,684,685,684,684,684,684,684,684,684,684,684,684,684,684,684,684,685,684,685,685,684,685,684,685,684,684,684,685,686,686,686,685,685,686,686,686,687,687,688,688,688,688,688,688,688,688,688,688,688,688,688,688,688,688,688,688,688,688,688,688,688,688,688,688,688,688,688,688,689,689,689,688,688,689,689,688,688,688,688,688,688,688,688,689,688,689,689,688,688,688,688,688,688,688,688,687,687,687,686,686,686,688,687,687,687,687,687,687,687,687,687,687,687,687,687,687,686,686,686,686,686,686,686,686,686,686,686,686,686,686,686,685,685,685,685,685,685,685,685,685,685,685,685,685,686,685,685,685,685,685,685,685,685,684,684,684,684,684,684,684,684,684,684,684,684,684,684,684,684,684,683,683,683,2047,2047,2047,617,617,617,617,616,616,616,616,616,616,616,616,616,616,616,616,616,616,616,616,616,616,616,615,615,615,615,616,616,616,616,616,616,616,616,615,615,615,615,615,615,614,614,615,614,614,613,614,613,614,614,613,613,613,613,613,613,613,613,613,613,613,613,613,613,612,613,613,613,612,612,613,613,613,613,613,613,613,612,612,612,612,612,612,612,612,612,611,611,611,610,610,610,610,609,610,610,610,610,610,611,610,611,611,611,611,611,612,611,612,611,611,610,610,610,610,610,610,610,610,610,610,610,610,610,610,610,610,610,610,610,610,610,610,609,610,609,610,610,610,610,610,610,609,609,609,609,609,609,609,609,609,609,609,609,609,609,609,609,609,609,609,610,609,609,609,609,609,609,609,609,609,610,609,610,610,610,610,609,609,609,609,610,609,609,609,609,610,609,609,609,609,609,609,609,610,610,610,610,610,610,610,610,610,611,611,611,611,610,611,610,610,610,610,610,610,610,610,610,610,610,610,610,610,610,610,610,610,610,611,611,611,611,610,610,610,610,610,610,610,610,611,611,612,613,614,614,614,614,675,675,675,675,675,675,675,675,675,676,675,676,676,676,676,676,676,676,676,676,675,675,675,675,675,675,675,674,675,675,675,675,675,675,675,675,675,675,675,675,675,675,676,675,676,675,675,675,675,675,675,675,675,675,675,676,675,675,675,675,675,675,675,674,674,675,675,674,674,675,675,675,675,675,675,675,675,675,674,674,674,674,674,674,674,675,675,675,674,675,675,675,675,675,674,674,674,674,674,674,674,674,674,674,674,674,674,674,674,674,674,674,674,674,675,674,674,674,674,674,674,674,674,674,674,674,674,674,674,674,674,674,674,674,674,675,674,674,674,674,674,674,674,674,674,674,673,673,673,673,673,672,672,672,672,672,672,671,672,671,671,671,671,671,671,671,671,671,671,2047,2047,2047,2047,2047,2047,2047,2047
690,690,690,689,690,689,689,689,688,688,688,688,688,688,688,688,686,686,686,686,686,686,686,686,686,686,685,684,684,684,684,684,684,684,684,684,684,684,684,684,684,684,684,684,684,684,684,684,684,684,684,684,684,684,685,684,685,685,685,685,685,685,685,685,684,685,686,685,685,685,685,685,686,686,687,687,688,688,688,688,688,688,688,688,688,688,688,688,688,688,688,688,688,688,688,688,688,688,688,688,688,687,688,688,688,688,688,689,689,688,689,688,689,688,688,688,688,688,688,688,688,688,688,689,689,688,688,688,688,688,688,688,687,687,687,687,686,686,686,686,686,687,687,687,687,687,687,687,687,687,687,687,687,687,687,686,685,686,685,685,686,686,686,687,686,686,686,686,685,686,685,685,685,685,685,685,685,685,685,685,685,685,685,685,685,685,685,685,685,685,684,684,684,684,684,684,684,684,684,684,684,684,684,684,684,684,684,683,683,2047,2047,2047,2047,2047,618,617,617,617,617,617,616,616,616,616,616,616,616,616,616,616,616,616,616,616,616,616,616,616,616,615,615,616,616,616,616,616,616,616,616,616,615,615,615,615,615,614,614,614,614,614,614,614,614,614,614,613,613,613,613,613,613,613,613,613,613,613,612,612,612,613,613,613,613,612,613,613,613,613,612,612,612,613,613,612,612,612,612,612,612,612,612,611,611,611,610,610,610,610,610,610,610,610,610,610,611,610,611,611,612,611,611,612,611,612,611,611,611,610,610,610,610,610,610,610,610,610,610,610,609,610,610,610,610,610,610,610,610,610,610,610,610,610,610,610,610,610,610,609,609,609,609,609,609,609,609,609,609,609,609,609,609,609,609,609,609,609,609,609,609,609,609,609,609,609,609,609,610,609,609,610,610,610,609,609,609,609,610,610,610,609,609,610,609,609,609,609,609,610,610,610,610,610,610,610,610,610,610,610,610,611,611,611,611,611,611,611,611,611,611,610,610,610,610,610,610,610,610,610,610,610,610,610,610,611,611,611,611,610,610,610,610,610,610,610,610,611,612,612,613,614,614,614,614,675,675,675,675,675,675,675,676,676,676,676,676,676,676,676,676,676,676,675,675,675,675,675,675,675,675,675,675,675,675,675,675,675,675,675,675,675,675,675,675,675,675,676,676,675,675,675,675,675,675,675,675,675,675,675,676,675,675,675,675,675,675,675,675,675,675,675,675,675,675,675,675,675,675,675,675,675,675,674,674,674,674,674,674,674,674,674,674,674,674,675,675,675,674,674,674,674,674,674,674,674,674,674,674,674,674,674,674,674,674,674,674,674,674,675,674,674,674,674,674,674,674,674,674,674,674,674,674,674,674,674,674,674,674,674,674,674,673,674,674,674,674,674,674,674,674,673,673,673,673,673,672,672,672,672,672,671,671,671,671,671,671,671,671,671,671,671,671,671,2047,2047,2047,2047,2047,2047,2047,2047
690,690,689,689,690,690,689,689,689,689,688,688,688,688,687,687,686,686,686,686,686,686,686,686,686,686,685,684,684,684,684,684,684,684,685,685,684,684,684,684,684,684,684,683,684,684,684,684,684,684,684,684,684,685,685,684,684,684,684,685,684,684,684,684,684,685,686,685,685,685,685,686,686,687,687,688,688,688,688,688,688,688,688,687,688,688,688,688,688,688,688,688,688,688,688,688,687,688,687,687,687,687,688,688,688,688,688,689,689,688,688,688,688,688,688,688,688,688,688,688,688,688,688,688,689,688,688,688,688,688,688,688,687,687,688,686,686,686,685,686,687,687,687,687,687,688,688,688,687,687,687,686,686,686,686,686,686,686,686,686,686,686,686,687,686,686,686,686,685,685,685,685,685,685,685,685,685,685,686,686,685,685,685,685,685,685,685,685,684,685,684,684,684,684,684,684,684,684,684,684,683,684,684,684,684,684,683,683,683,683,2047,2047,2047,2047,618,617,617,617,617,617,616,616,616,616,616,616,616,616,616,616,616,616,616,616,616,616,616,616,616,616,616,616,616,616,616,616,616,616,616,616,616,615,615,615,615,615,615,615,615,614,614,614,614,613,614,613,613,613,613,613,613,613,613,613,613,613,613,613,613,613,613,613,613,612,612,613,612,612,612,612,612,613,613,612,612,612,612,612,612,612,611,611,611,611,610,610,610,610,610,610,610,610,610,610,611,611,611,611,612,612,612,613,613,612,611,611,611,611,610,610,610,610,610,610,610,610,610,609,609,610,610,610,610,610,610,610,610,610,610,610,610,610,610,610,610,610,610,610,609,609,609,609,609,609,609,609,609,609,609,609,609,609,609,609,609,609,609,609,609,609,609,609,609,609,609,609,610,610,610,610,609,610,609,609,609,609,610,610,610,610,610,610,609,610,609,609,609,610,610,610,610,610,610,610,610,610,610,610,611,610,610,610,610,611,611,611,611,611,611,611,610,610,610,610,610,610,610,610,610,610,610,611,610,611,611,611,611,610,610,610,610,610,610,611,611,611,612,612,613,613,613,614,614,675,675,675,674,674,675,675,675,675,675,675,676,676,676,676,676,677,676,675,675,675,675,675,675,675,675,675,675,675,675,675,675,675,675,675,675,675,675,675,674,675,675,676,676,676,675,675,675,675,675,675,675,675,675,675,675,675,675,675,675,675,675,674,674,674,675,675,674,675,675,675,675,675,674,674,674,675,675,674,674,674,674,674,673,673,674,674,674,674,674,674,675,675,674,674,674,674,674,674,674,674,674,674,674,674,674,674,674,674,674,674,674,674,673,675,674,674,674,674,674,674,674,674,674,674,674,673,673,674,674,674,674,673,674,674,674,674,674,674,674,674,674,674,673,674,674,674,674,674,673,673,672,672,672,671,671,671,671,672,671,671,671,671,671,671,671,670,671,671,2047,2047,2047,2047,2047,2047,2047,2047
690,689,689,688,689,689,689,688,688,688,688,688,688,687,687,687,686,686,686,686,686,686,686,686,686,685,685,685,684,684,684,684,684,685,685,685,684,684,684,684,684,684,684,684,683,683,683,684,684,684,684,684,684,684,684,684,684,684,684,684,684,684,684,684,684,685,686,685,685,685,685,685,686,686,687,688,688,688,688,688,688,688,688,688,688,688,688,688,688,688,688,688,688,688,687,687,687,687,687,687,687,687,688,688,688,688,689,689,689,688,688,688,688,688,688,688,688,688,688,688,688,688,688,688,688,688,688,688,688,688,688,687,687,687,687,687,686,686,686,686,686,687,687,687,687,688,688,688,687,687,687,687,686,686,686,686,686,686,686,686,687,686,686,687,687,687,686,686,685,685,685,685,685,685,685,685,685,685,685,686,685,685,685,685,685,685,685,684,684,684,684,684,684,684,684,684,684,684,684,684,683,683,684,683,684,683,683,683,683,2047,2047,2047,2047,2047,2047,617,617,617,617,617,616,616,616,616,616,616,616,616,616,616,616,616,616,616,616,616,616,616,616,616,616,616,616,616,616,616,616,616,616,616,616,616,615,615,615,615,615,615,614,614,614,614,614,614,614,613,613,613,613,613,613,613,613,613,613,613,613,613,613,612,613,613,612,612,612,612,612,612,612,613,613,613,612,612,612,612,612,612,612,611,611,611,611,611,610,610,610,610,610,610,610,610,610,610,611,611,611,612,612,612,612,613,613,612,612,611,611,611,611,610,610,610,610,610,610,610,610,610,609,610,610,610,610,610,610,610,610,610,610,610,610,610,610,610,610,610,610,610,609,609,609,609,609,609,609,609,609,609,609,609,609,609,609,609,609,609,609,609,609,609,609,609,609,609,609,610,610,610,610,610,610,610,610,609,609,609,610,610,610,609,609,609,609,609,609,609,609,609,610,610,610,610,610,610,610,610,610,610,610,610,611,610,610,611,611,610,610,611,611,611,610,610,610,610,610,610,609,610,610,610,610,611,610,611,610,610,610,610,610,610,610,610,610,610,611,611,611,612,613,613,613,614,614,674,674,674,674,674,674,675,675,675,675,675,676,676,676,676,676,676,676,675,675,675,675,675,675,675,675,675,675,675,675,675,675,675,675,675,675,675,675,675,674,675,675,675,676,676,675,675,675,675,675,675,675,675,675,675,675,675,675,675,675,675,675,675,675,675,675,675,675,675,674,674,675,675,675,674,675,675,675,674,674,674,674,674,674,674,674,674,674,674,674,674,675,675,674,674,674,674,674,674,674,674,674,674,674,674,674,674,674,674,674,674,674,673,673,674,674,674,674,674,674,674,674,674,674,674,674,673,673,674,674,673,674,673,673,674,674,674,674,674,674,674,674,674,673,673,674,674,673,674,673,673,672,672,672,672,672,671,672,672,671,671,671,671,671,671,671,670,671,671,2047,2047,2047,2047,2047,2047,2047,2047
689,689,688,688,689,687,688,688,688,688,687,688,687,687,687,687,687,686,687,686,686,686,686,686,685,685,685,685,684,684,684,684,684,685,685,684,684,684,684,684,684,684,684,683,684,684,684,684,684,684,684,684,684,684,684,684,685,685,684,685,685,685,685,685,684,685,686,685,685,685,685,685,686,686,686,687,687,688,688,688,688,688,688,688,688,688,688,688,688,688,688,688,688,688,687,687,687,687,688,687,688,687,688,688,688,688,688,689,689,688,688,688,688,688,688,688,688,688,688,688,688,688,688,688,688,688,688,688,688,688,688,687,687,687,687,686,686,686,686,686,687,687,687,687,687,688,688,688,688,687,687,687,687,687,686,686,686,686,686,686,686,686,686,687,686,687,686,686,686,686,685,685,685,685,685,685,685,685,685,685,685,685,685,685,685,685,685,684,684,684,684,684,684,684,684,683,684,683,683,684,683,683,683,683,683,683,683,682,682,2047,2047,2047,2047,2047,618,617,617,617,617,617,617,616,616,616,616,616,616,616,616,616,616,616,616,616,616,616,616,616,616,616,616,616,616,616,616,616,616,616,616,615,615,615,615,615,615,615,615,615,615,614,614,614,614,614,614,613,614,614,613,613,613,613,613,613,613,613,613,613,613,613,613,613,613,612,612,613,612,613,613,613,613,613,612,612,612,612,612,612,612,612,611,611,611,611,611,610,610,610,610,610,610,610,610,611,611,611,611,611,612,611,612,613,612,612,612,611,611,611,610,610,610,610,610,610,610,610,610,609,609,610,610,610,610,610,610,610,610,610,610,609,609,610,610,609,609,609,609,609,609,609,609,609,609,609,609,609,609,609,609,609,609,609,609,609,609,609,609,609,609,609,609,609,609,609,609,609,610,610,609,610,610,610,610,610,610,609,610,610,609,610,609,610,610,610,610,610,609,610,610,610,610,610,610,610,610,610,610,610,610,611,611,611,611,611,611,611,611,611,611,611,610,610,610,610,610,610,610,610,610,611,611,611,611,611,611,611,610,610,610,610,610,610,610,610,611,611,611,612,613,613,613,614,674,674,674,674,674,674,674,675,675,675,675,676,676,676,676,676,675,676,675,675,675,675,675,675,675,675,675,675,675,675,675,675,675,675,675,675,675,675,675,675,674,675,675,675,676,675,675,675,675,675,675,675,674,675,675,675,675,675,675,675,675,675,674,675,674,674,675,674,674,675,675,675,675,675,675,675,675,674,675,674,674,674,674,674,673,673,674,674,674,674,674,674,674,674,674,674,674,674,674,674,674,674,674,674,674,674,674,674,674,674,674,674,673,673,674,675,674,674,674,674,674,674,674,674,674,673,673,673,673,673,674,673,673,673,673,674,674,674,673,674,674,674,674,674,673,673,673,673,673,673,673,672,672,672,672,671,672,671,671,671,671,671,671,671,671,671,671,670,671,671,2047,2047,2047,2047,2047,2047,2047,2047
