2047,2047,2047,2047,2047,2047,2047,2047,2047,2047,2047,2047,2047,2047,2047,2047,2047,2047,2047,2047,2047,2047,2047,2047,2047,2047,2047,2047,2047,2047,2047,2047,2047,2047,2047,2047,2047,2047,2047,2047,2047,2047,656,657,657,658,658,659,658,659,659,659,659,660,660,660,661,661,661,661,661,660,660,660,661,661,662,662,662,662,662,662,662,662,662,663,663,663,663,663,663,663,663,663,663,663,663,663,663,663,664,664,664,664,664,664,664,664,664,664,664,664,664,664,664,664,665,665,665,665,664,664,664,664,664,664,664,664,665,665,664,665,665,665,664,665,664,665,665,664,665,665,665,665,665,665,665,666,666,666,666,666,666,666,666,666,666,666,665,665,665,665,665,665,665,665,665,665,665,666,665,665,665,665,665,665,665,665,665,665,665,664,665,665,665,665,665,665,666,665,665,665,665,664,664,664,664,664,665,665,665,665,665,665,665,665,665,665,665,665,665,665,665,665,666,665,665,665,665,665,665,665,665,665,665,665,665,665,665,665,665,665,665,665,665,665,665,665,665,665,665,665,665,665,665,665,665,665,664,665,665,665,665,665,664,664,664,664,664,664,664,664,664,664,664,664,664,664,664,664,664,664,664,664,664,664,664,664,664,664,664,664,664,664,664,664,664,663,663,662,662,662,662,2047,2047,2047,2047,2047,2047,2047,2047,2047,2047,2047,2047,2047,2047,2047,2047,2047,2047,2047,2047,2047,2047,2047,2047,2047,2047,2047,2047,2047,2047,2047,2047,2047,2047,454,453,452,451,450,450,450,449,449,449,448,448,448,447,447,446,446,445,445,445,445,445,445,445,445,446,445,445,445,445,445,445,445,444,445,2047,2047,2047,2047,2047,2047,2047,450,451,453,453,454,454,455,456,457,458,2047,460,460,461,2047,2047,665,664,664,663,663,663,663,663,663,663,663,663,663,664,664,664,664,664,664,664,664,664,664,664,664,664,665,665,665,664,664,664,665,665,665,665,665,665,665,665,665,665,665,665,665,665,665,666,665,665,666,666,666,666,666,666,666,667,666,666,666,666,666,666,666,667,667,667,667,667,668,668,668,668,668,668,668,669,669,668,668,669,669,669,669,669,669,670,670,670,670,670,670,670,670,670,670,670,670,670,670,670,670,671,671,671,671,671,671,671,671,671,671,671,671,671,671,671,671,670,671,671,671,671,671,671,671,671,671,671,672,672,672,671,672,672,672,671,671,671,671,671,671,671,671,671,671,671,671,671,671,671,671,671,671,671,672,672,672,671,671,672,671,671,671,671,671,671,671,671,671,671,671,671,671,671,671,671,671,671,671,671,671,671,671,671,671,671,671,671,671,671,671,671,671,671,671,671,671,670,670,670,670,670,670,670,670,670,670,671,671,671,671,685,684,684,684,684,684,683,683,682,683,682,682,681,681,680,680,680,680,679,679,679,679,678,678,678,678,678,677,676,676,676,676,676,675,675,675,675,675,675,674,674,674,673,672,2047,2047,2047,2047,2047,2047,2047,2047
2047,2047,2047,2047,2047,2047,2047,2047,2047,2047,2047,2047,2047,2047,2047,2047,2047,2047,2047,2047,2047,2047,2047,2047,2047,2047,2047,2047,2047,2047,2047,2047,2047,2047,2047,2047,2047,2047,2047,2047,2047,2047,2047,2047,658,658,658,659,659,659,659,659,659,660,660,660,660,661,661,661,661,660,660,660,661,661,662,662,662,663,663,662,662,662,662,663,663,663,663,663,663,663,663,663,663,663,663,663,663,663,664,664,664,664,664,664,664,664,664,664,664,664,664,664,665,665,665,665,665,665,664,664,664,664,664,664,664,664,665,665,665,665,665,665,665,665,664,665,665,664,665,665,665,665,665,665,665,666,666,666,666,666,666,666,666,666,666,666,666,665,665,665,665,665,666,666,665,665,665,666,665,665,665,665,665,665,665,665,665,665,665,665,665,665,665,665,665,665,666,666,665,665,665,665,665,664,664,664,665,665,665,665,665,665,665,665,665,665,665,665,665,665,665,666,666,666,666,665,665,665,665,665,665,665,665,665,665,665,665,665,665,665,665,665,665,665,665,665,665,665,665,665,665,665,665,665,665,665,665,665,665,665,665,665,664,664,664,664,664,664,664,664,664,664,664,664,664,664,664,664,664,664,664,664,664,664,664,664,664,664,664,664,664,664,664,664,664,663,663,663,662,662,2047,2047,2047,2047,2047,2047,2047,2047,2047,2047,2047,2047,2047,2047,2047,2047,2047,2047,2047,2047,2047,2047,2047,2047,2047,2047,2047,2047,2047,2047,2047,2047,2047,2047,2047,2047,2047,2047,2047,2047,2047,449,449,449,448,448,448,448,448,447,447,446,446,445,445,445,445,445,445,445,446,446,446,445,445,445,445,445,445,445,2047,2047,2047,2047,2047,2047,2047,2047,452,453,453,454,454,455,455,455,455,460,460,461,461,461,2047,665,664,664,663,663,663,663,663,663,663,663,663,664,664,664,664,664,664,664,664,664,664,664,664,664,664,665,665,665,664,664,665,665,665,665,665,665,665,666,665,665,666,665,665,665,665,665,665,665,665,666,666,666,666,666,666,666,667,666,666,666,666,666,666,667,667,668,668,668,668,668,668,669,668,668,668,668,669,669,669,669,669,669,669,670,670,670,670,670,670,670,670,670,670,670,670,670,670,670,670,670,670,671,671,671,671,671,671,671,671,671,671,671,671,671,671,671,671,671,671,671,671,671,671,671,671,671,671,671,671,671,671,671,671,672,672,672,671,671,671,671,671,671,671,671,671,671,671,671,671,671,671,671,671,671,671,672,672,672,671,672,672,672,671,671,671,671,671,671,671,671,671,671,671,671,671,671,671,671,671,671,671,671,671,671,671,671,671,671,671,671,671,671,671,671,671,671,671,671,671,670,670,670,670,670,670,670,670,670,672,672,671,672,684,684,684,684,684,684,683,683,682,683,682,682,681,681,680,680,680,680,679,679,679,679,679,678,678,678,678,677,676,676,676,676,676,675,675,675,675,675,674,674,674,674,673,672,2047,2047,2047,2047,2047,2047,2047,2047
2047,2047,2047,2047,2047,2047,2047,2047,2047,2047,2047,2047,2047,2047,2047,2047,2047,2047,2047,2047,2047,2047,2047,2047,2047,2047,2047,2047,2047,2047,2047,2047,2047,2047,2047,2047,2047,2047,2047,2047,2047,2047,2047,658,658,659,659,659,659,659,659,659,659,660,660,660,661,661,661,661,661,661,661,660,661,661,662,662,662,662,662,662,662,662,662,663,663,663,663,663,663,663,663,663,663,663,664,663,663,663,664,663,663,663,664,664,664,664,664,664,664,664,664,664,664,665,665,665,665,665,665,664,664,664,664,664,664,664,665,665,665,665,665,665,665,665,664,665,665,665,665,665,665,665,666,666,665,666,666,666,666,666,666,666,666,666,666,666,665,665,665,665,665,665,666,665,665,665,665,666,665,665,665,665,666,666,666,665,666,665,665,665,665,666,665,665,666,666,666,666,666,665,665,665,665,665,665,664,665,665,665,665,665,665,665,665,665,666,665,665,666,665,666,666,666,666,666,666,666,666,665,666,665,665,665,665,665,665,665,665,665,665,665,665,665,665,665,665,665,665,665,665,665,665,665,665,665,665,665,665,665,665,665,665,664,665,665,664,664,664,664,664,664,664,664,664,664,664,664,664,664,664,664,665,665,665,665,665,664,664,664,664,664,664,664,664,664,663,663,663,663,663,662,2047,2047,2047,2047,2047,2047,2047,2047,2047,2047,2047,2047,2047,2047,2047,2047,2047,2047,2047,2047,2047,2047,2047,2047,2047,2047,2047,2047,2047,460,2047,2047,2047,2047,2047,2047,2047,2047,2047,2047,449,449,449,448,448,448,447,447,447,446,446,446,446,445,445,446,445,446,446,446,446,446,446,445,445,446,446,445,446,2047,2047,2047,2047,2047,2047,2047,452,452,453,453,454,454,455,455,455,460,461,461,461,461,461,2047,666,664,664,663,663,663,663,663,663,663,663,663,663,664,664,664,664,664,664,664,664,664,664,664,664,664,665,665,665,664,663,664,665,665,664,664,665,665,665,665,665,665,665,665,665,665,665,665,665,665,666,666,666,666,666,666,666,667,666,666,666,666,666,666,667,667,668,668,668,668,668,668,669,668,668,668,668,669,669,669,669,669,670,670,670,670,670,670,670,670,670,670,670,670,670,670,670,670,671,670,670,670,671,671,671,671,670,670,671,671,671,671,671,671,671,671,671,671,670,671,671,671,671,671,671,671,671,671,671,671,671,672,672,672,672,672,672,671,671,671,671,671,671,671,671,671,671,671,671,671,671,671,671,671,671,671,671,672,672,671,671,672,671,671,671,671,671,671,671,671,671,671,671,671,671,671,671,671,671,671,671,671,671,671,671,671,671,671,671,671,671,671,671,671,671,671,671,671,671,671,670,670,670,670,670,671,670,670,670,671,671,671,672,684,684,684,684,684,684,683,683,682,683,682,682,681,681,680,680,680,680,679,679,679,679,679,678,678,678,678,677,677,676,676,676,676,675,675,675,675,675,674,674,674,674,673,672,2047,2047,2047,2047,2047,2047,2047,2047
2047,2047,2047,2047,2047,2047,2047,2047,2047,2047,2047,2047,2047,2047,2047,2047,2047,2047,2047,2047,2047,2047,2047,2047,2047,2047,2047,2047,2047,2047,2047,2047,2047,2047,2047,2047,2047,2047,2047,2047,2047,2047,2047,658,658,658,659,659,659,659,659,659,659,660,660,660,661,661,661,661,661,660,661,661,661,661,662,662,662,662,662,662,662,662,662,663,663,663,663,663,663,663,663,663,663,663,664,664,664,664,664,664,664,664,664,664,664,664,664,664,664,664,664,665,665,665,665,665,665,665,665,664,665,664,664,664,664,664,665,665,665,665,665,665,665,665,664,665,665,664,665,665,665,665,666,666,665,666,665,666,666,666,666,666,666,666,666,666,665,665,665,665,665,665,665,665,665,665,665,666,665,666,665,666,666,666,666,665,666,665,665,665,665,665,665,665,665,666,666,666,666,665,665,665,665,665,665,665,666,666,666,666,665,665,665,665,665,666,666,666,666,665,666,666,666,666,666,666,666,666,666,666,666,665,665,665,665,666,665,665,665,665,665,665,665,665,665,665,665,665,665,665,665,665,665,665,665,665,665,665,665,665,665,665,664,664,664,664,664,664,664,664,664,664,664,664,664,665,665,664,664,664,664,665,664,664,664,664,664,665,665,664,664,664,664,664,664,664,663,663,663,663,2047,2047,2047,2047,2047,2047,2047,2047,2047,2047,2047,2047,2047,2047,2047,2047,2047,2047,2047,2047,2047,2047,2047,2047,2047,2047,2047,2047,2047,461,460,2047,2047,2047,2047,2047,2047,2047,2047,2047,2047,450,449,449,449,447,448,448,448,448,447,446,446,446,445,445,446,446,446,446,446,446,445,446,445,446,446,446,446,2047,2047,2047,2047,2047,2047,2047,2047,452,453,454,454,457,457,456,457,457,460,461,461,461,461,458,2047,665,664,664,663,663,663,663,663,663,663,663,663,664,664,664,664,664,664,664,664,664,665,664,664,664,665,665,665,665,664,664,664,665,665,665,665,665,665,665,665,665,665,665,665,665,665,666,666,666,666,666,666,666,666,666,666,666,666,666,666,666,666,666,666,666,667,667,668,668,668,668,668,669,668,668,668,668,669,669,669,669,669,670,670,670,670,670,670,670,670,670,670,670,670,670,670,670,670,670,670,670,670,671,671,671,671,670,671,671,671,671,671,671,671,671,671,671,671,670,670,671,671,671,671,671,671,671,671,671,671,671,671,671,671,672,672,672,671,671,671,671,671,671,671,671,671,671,672,672,671,671,671,671,671,671,671,671,672,672,672,672,672,672,672,671,671,671,671,671,671,671,671,671,671,671,671,671,671,671,671,671,671,671,671,671,671,671,671,671,671,671,671,671,671,671,671,671,671,671,671,671,671,671,671,670,671,670,670,671,671,671,671,672,684,684,684,684,684,684,683,683,682,683,682,682,681,681,680,680,680,679,679,679,679,679,679,678,678,678,678,677,677,677,676,676,676,675,675,675,675,675,674,674,674,673,673,672,2047,2047,2047,2047,2047,2047,2047,2047
2047,2047,2047,2047,2047,2047,2047,2047,2047,2047,2047,2047,2047,2047,2047,2047,2047,2047,2047,2047,2047,2047,2047,2047,2047,2047,2047,2047,2047,2047,2047,2047,2047,2047,2047,2047,2047,2047,2047,2047,2047,2047,2047,658,658,659,659,659,659,659,659,660,659,660,660,660,661,661,661,661,661,660,660,660,661,661,662,662,662,662,662,662,662,663,662,663,663,663,663,663,663,663,663,663,664,664,664,664,664,664,664,664,664,664,664,664,664,664,664,664,664,664,664,664,665,665,665,666,666,665,665,665,665,664,664,664,664,665,665,665,665,666,666,666,666,665,665,665,665,665,665,665,665,665,666,666,665,666,666,666,666,666,666,666,666,666,666,666,666,666,665,665,666,665,665,665,664,665,665,665,665,665,666,666,666,666,666,666,666,666,665,665,665,665,665,666,666,666,666,666,666,665,665,665,665,665,665,665,666,666,666,666,666,665,665,665,665,666,665,665,665,665,665,665,666,665,666,666,666,666,665,666,665,665,665,665,665,665,665,665,665,665,665,665,665,665,665,665,665,665,665,665,665,665,665,665,665,665,665,665,665,665,665,665,664,664,664,664,664,664,664,664,664,664,664,664,664,665,665,665,665,665,665,665,665,665,664,665,665,664,665,664,664,664,664,664,664,664,664,664,664,664,2047,2047,2047,2047,2047,2047,2047,2047,2047,2047,2047,2047,2047,2047,2047,2047,2047,2047,2047,2047,2047,2047,2047,2047,2047,2047,2047,2047,2047,460,460,2047,2047,2047,2047,2047,2047,2047,2047,2047,2047,450,450,448,448,448,448,448,448,447,447,446,446,446,445,445,446,446,446,446,446,445,445,445,445,445,446,446,446,446,2047,2047,2047,2047,2047,2047,2047,453,453,454,454,457,457,457,457,457,461,461,460,458,458,458,665,665,664,663,663,663,663,663,663,663,663,663,663,663,663,664,664,664,664,664,665,665,665,665,665,665,665,665,665,665,664,664,665,665,665,665,665,665,665,665,665,666,665,665,666,665,666,666,666,666,666,666,666,666,666,666,667,667,667,666,666,666,666,666,667,666,667,667,668,668,668,668,668,668,668,668,668,668,669,669,669,669,669,670,670,670,670,670,670,670,670,670,670,670,670,670,670,670,670,670,670,670,670,671,671,671,671,670,670,670,671,671,671,671,671,671,671,671,671,671,671,671,671,671,671,671,671,671,671,671,671,671,671,671,671,671,672,672,671,672,671,671,671,671,671,671,671,671,672,672,671,671,671,671,671,671,671,672,672,672,672,672,672,672,672,672,671,671,671,671,671,671,671,671,671,671,671,671,671,671,671,671,671,671,671,671,671,671,671,671,671,671,671,671,671,671,671,671,671,671,671,671,671,671,671,671,671,670,670,670,671,671,671,671,685,684,684,684,684,684,683,683,682,683,682,682,681,681,680,680,680,679,679,679,679,679,679,678,678,678,678,677,677,677,676,676,676,675,675,675,675,675,674,674,674,674,673,672,2047,2047,2047,2047,2047,2047,2047,2047
2047,2047,2047,2047,2047,2047,2047,2047,2047,2047,2047,2047,2047,2047,2047,2047,2047,2047,2047,2047,2047,2047,2047,2047,2047,2047,2047,2047,2047,2047,2047,2047,2047,2047,2047,2047,2047,2047,2047,2047,2047,2047,658,658,659,659,659,659,659,660,659,660,660,660,660,660,661,661,661,661,660,660,660,660,661,661,662,662,662,663,663,663,663,663,663,663,663,663,663,663,663,663,663,664,664,664,664,664,664,664,664,664,664,664,664,664,664,664,664,664,664,664,664,664,665,665,665,666,665,665,665,665,665,664,664,664,664,665,665,665,665,665,666,666,666,666,665,665,665,665,665,665,665,665,666,666,666,666,666,666,666,666,666,666,666,666,666,666,666,666,666,666,666,665,666,665,665,665,665,665,665,666,666,666,666,666,666,666,666,666,666,665,665,666,666,666,666,666,667,667,666,666,665,665,665,665,665,665,666,666,666,666,666,666,666,665,665,666,666,665,665,665,665,665,665,665,666,666,666,666,666,666,666,665,665,665,665,665,665,665,665,665,665,665,665,665,665,665,665,665,665,665,665,665,665,665,665,665,665,665,665,665,665,665,664,665,664,665,664,664,664,664,664,664,664,664,664,665,665,665,665,665,665,665,665,665,665,665,665,665,665,665,665,665,664,664,664,664,664,664,664,664,2047,2047,2047,2047,2047,2047,2047,2047,2047,2047,2047,2047,2047,2047,2047,2047,2047,2047,2047,2047,2047,2047,2047,2047,2047,2047,2047,2047,2047,461,460,460,2047,2047,2047,2047,2047,2047,2047,2047,2047,2047,449,448,448,447,448,448,448,448,447,446,446,446,446,445,446,446,445,446,446,446,445,445,445,445,446,446,446,446,2047,2047,2047,2047,2047,2047,2047,453,454,456,456,457,457,457,458,461,461,461,461,459,459,459,2047,664,663,663,663,663,663,663,663,663,664,664,663,664,664,664,664,664,664,664,664,664,665,665,665,665,665,665,665,665,664,665,665,665,665,665,665,665,665,665,665,666,665,665,666,666,666,666,666,666,666,666,667,667,667,667,667,667,667,666,666,666,666,666,667,666,667,668,668,668,668,668,668,668,668,668,668,668,669,669,669,670,670,670,670,670,670,670,670,670,670,670,670,670,670,670,670,670,670,670,670,670,670,671,671,671,671,670,671,671,671,671,671,671,671,671,671,671,671,670,671,671,671,671,671,671,671,671,671,671,671,671,671,671,671,671,672,672,671,672,671,671,671,671,671,671,671,671,671,671,671,671,671,671,671,671,671,672,672,672,672,673,672,672,672,672,672,671,671,671,671,671,671,671,671,671,671,671,671,671,671,671,671,671,671,671,671,671,671,671,671,671,671,671,671,671,671,671,671,671,671,671,671,671,671,671,671,671,670,670,671,671,671,671,685,684,684,684,684,684,683,683,682,682,682,682,681,681,680,680,680,680,679,679,679,679,679,678,678,678,678,678,677,677,676,676,676,675,675,675,675,675,674,674,674,673,673,672,2047,2047,2047,2047,2047,2047,2047,2047
2047,2047,2047,2047,2047,2047,2047,2047,2047,2047,2047,2047,2047,2047,2047,2047,2047,2047,2047,2047,2047,2047,2047,2047,2047,2047,2047,2047,2047,2047,2047,2047,2047,2047,2047,2047,2047,2047,2047,2047,2047,658,658,658,659,659,659,659,659,660,659,660,660,660,660,660,661,661,661,661,661,661,661,661,661,662,662,662,663,663,663,663,663,663,663,663,663,663,663,663,663,664,664,664,664,664,664,664,664,664,664,664,664,664,664,664,664,664,664,664,664,664,664,665,665,665,665,666,665,665,665,664,665,664,664,664,664,665,665,666,666,666,666,666,667,666,666,666,665,666,666,665,665,665,666,666,666,666,666,666,666,666,666,666,666,666,666,666,666,666,666,666,666,665,666,665,665,665,665,666,666,666,666,666,666,666,666,666,666,666,665,665,665,666,666,666,666,666,667,667,667,666,666,665,665,665,665,665,666,666,666,666,666,666,666,665,665,666,666,666,665,665,665,665,666,665,666,665,666,666,665,666,666,665,665,665,665,665,665,665,665,665,665,665,665,665,665,665,665,665,665,665,665,665,665,665,665,665,665,665,665,665,665,665,665,665,665,665,665,665,664,665,665,665,665,665,665,665,665,665,665,665,665,665,665,665,665,665,665,665,665,665,665,665,665,665,664,664,664,664,664,664,2047,2047,2047,2047,2047,2047,2047,2047,2047,2047,2047,2047,2047,2047,2047,2047,2047,2047,2047,2047,2047,2047,2047,2047,2047,2047,2047,2047,2047,460,460,459,458,2047,2047,2047,2047,2047,2047,2047,2047,2047,2047,450,450,447,449,449,448,448,448,447,446,446,446,446,446,446,445,446,446,446,445,445,445,446,446,446,446,446,2047,2047,2047,2047,2047,2047,2047,2047,454,456,456,457,457,457,459,461,461,462,462,462,462,2047,665,665,664,664,664,663,663,663,663,663,663,663,663,664,664,664,664,664,664,664,664,665,665,665,665,665,665,665,665,665,665,665,665,665,665,665,665,665,665,665,665,665,665,665,666,666,666,666,666,666,666,666,667,667,667,667,667,667,667,666,666,666,666,667,667,667,668,668,668,668,668,668,668,669,668,668,668,668,669,670,669,670,670,670,670,670,670,670,670,670,670,670,670,670,670,670,670,670,670,670,670,670,670,671,671,671,671,670,671,671,671,671,671,671,671,671,671,671,671,671,671,671,671,671,671,671,671,671,671,671,671,671,671,671,671,671,672,672,671,672,672,671,671,671,671,671,671,671,671,671,671,671,671,671,671,671,671,671,672,672,672,672,672,672,672,672,671,671,671,671,671,671,671,671,671,671,671,671,671,671,671,671,671,671,671,671,671,671,671,671,671,671,671,671,671,671,671,671,671,671,671,671,671,671,671,671,671,670,670,670,671,671,671,671,685,685,684,684,684,684,683,683,682,682,682,682,682,681,681,680,680,680,680,679,679,679,679,678,678,679,678,678,677,677,676,676,676,675,675,675,675,675,674,674,674,673,673,672,2047,2047,2047,2047,2047,2047,2047,2047
2047,2047,2047,2047,2047,2047,2047,2047,2047,2047,2047,2047,2047,2047,2047,2047,2047,2047,2047,2047,2047,2047,2047,2047,2047,2047,2047,2047,2047,2047,2047,2047,2047,2047,2047,2047,2047,2047,2047,2047,2047,659,658,659,659,659,659,659,659,660,659,660,660,660,660,660,661,661,661,661,661,661,661,661,662,662,662,662,663,663,663,663,663,663,663,663,663,663,663,663,663,664,664,664,664,664,664,664,664,664,664,664,664,664,664,664,664,664,664,664,664,664,665,665,665,666,665,666,665,665,665,665,665,665,665,664,664,665,665,665,666,666,666,667,667,667,666,666,666,666,666,666,666,666,666,666,666,666,666,666,666,666,666,666,666,666,666,666,666,666,666,666,666,666,666,665,665,665,666,666,666,666,666,666,666,666,666,665,666,666,666,665,665,666,666,666,666,666,666,667,667,666,666,666,666,666,666,665,666,666,666,666,666,666,666,666,666,666,666,666,665,665,665,665,665,665,665,665,666,666,666,666,666,665,665,665,665,665,665,665,665,666,665,665,665,665,665,665,665,665,665,665,665,665,665,665,665,665,665,665,665,665,665,665,665,665,665,665,665,665,665,665,665,665,665,665,665,665,665,665,665,665,665,665,665,665,665,665,665,665,665,665,665,665,665,665,664,665,664,664,664,664,2047,2047,2047,2047,2047,2047,2047,2047,2047,2047,2047,2047,2047,2047,2047,2047,2047,2047,2047,2047,2047,2047,2047,2047,2047,2047,2047,2047,2047,460,460,459,458,458,457,456,2047,2047,2047,2047,2047,453,451,451,450,450,450,449,449,449,448,447,447,447,447,446,446,446,446,446,446,446,446,446,445,446,446,446,446,446,2047,2047,2047,2047,2047,2047,2047,2047,455,456,456,457,457,458,458,461,462,463,2047,463,2047,666,2047,665,665,664,664,664,664,664,664,663,664,664,664,664,664,664,664,664,664,664,664,664,664,664,664,664,664,665,665,665,665,665,665,665,665,665,665,665,665,665,666,666,666,665,666,666,666,666,666,666,666,666,667,667,667,667,667,667,667,666,666,666,666,667,667,667,668,668,668,668,668,668,668,668,668,668,668,668,670,670,670,670,670,670,670,670,670,670,670,670,670,670,670,670,670,670,670,670,670,670,670,671,671,671,671,671,671,670,671,671,671,671,671,671,671,671,671,671,671,671,671,671,671,671,671,671,671,671,671,671,671,671,671,671,671,671,672,672,671,672,672,671,671,671,671,671,671,671,671,671,671,671,671,671,671,671,671,672,672,672,672,672,672,672,671,671,671,671,671,671,672,672,672,671,671,671,671,671,671,671,671,671,671,671,671,671,671,671,671,671,671,671,671,671,671,671,671,671,671,671,671,671,671,671,671,670,670,670,670,670,671,671,671,671,685,685,684,684,684,683,683,683,682,682,682,682,681,681,680,680,680,680,680,679,679,679,679,678,678,679,678,678,677,677,676,676,676,675,675,675,675,675,674,674,674,673,673,673,2047,2047,2047,2047,2047,2047,2047,2047
2047,2047,2047,2047,2047,2047,2047,2047,2047,2047,2047,2047,2047,2047,2047,2047,2047,2047,2047,2047,2047,2047,2047,2047,2047,2047,2047,2047,2047,2047,2047,2047,2047,2047,2047,2047,2047,2047,2047,2047,2047,658,658,658,659,659,659,659,659,660,660,660,660,660,660,660,661,661,661,661,661,661,661,662,662,662,662,663,663,663,663,663,663,663,663,663,663,663,663,663,663,664,664,664,664,664,664,664,664,664,664,664,664,664,664,664,664,664,664,664,665,665,665,665,665,666,665,666,665,665,665,665,665,665,665,665,664,665,665,666,666,666,666,667,667,667,666,666,666,666,666,666,666,665,666,666,666,666,666,667,666,667,666,667,666,667,666,666,666,666,666,666,666,665,665,665,665,665,666,666,666,666,666,666,666,666,666,665,665,665,665,665,665,665,666,666,666,666,666,666,667,666,666,665,666,666,665,665,666,666,666,666,666,666,666,666,666,666,666,666,666,665,665,666,666,665,666,665,665,666,665,665,665,665,665,665,665,665,665,665,665,666,665,665,665,665,665,665,665,665,665,665,665,665,665,665,665,665,666,665,665,665,665,665,665,665,665,665,665,665,664,664,665,664,665,665,665,665,665,665,665,665,665,665,665,665,665,665,665,665,665,665,665,665,665,665,665,665,664,664,664,664,2047,2047,2047,2047,2047,2047,2047,2047,2047,2047,2047,2047,2047,2047,2047,2047,2047,2047,2047,2047,2047,2047,2047,2047,2047,2047,2047,2047,460,460,460,459,458,458,457,457,456,2047,2047,2047,2047,453,450,450,449,450,450,449,449,449,448,448,447,447,446,446,446,446,446,446,446,446,446,446,446,446,446,445,445,446,2047,2047,2047,2047,2047,2047,2047,457,457,457,457,457,458,458,458,462,462,2047,463,2047,2047,666,666,666,665,665,665,664,664,664,664,664,664,664,664,664,664,664,664,664,664,664,664,665,665,665,665,665,665,665,665,665,665,665,665,665,665,665,665,665,665,665,665,666,666,666,666,666,666,666,666,666,666,666,667,667,667,667,667,667,667,667,666,666,667,667,667,667,668,668,668,669,668,668,669,669,668,668,669,669,670,670,670,670,670,670,670,670,670,670,670,670,670,670,670,670,670,670,670,670,670,670,670,671,671,671,671,671,671,671,671,671,671,671,671,671,671,671,671,671,671,671,671,671,671,671,671,671,671,671,671,671,671,671,671,671,671,671,672,672,672,672,672,671,671,671,671,671,671,671,671,671,671,671,671,671,671,671,671,671,672,672,672,672,672,671,671,672,672,672,672,671,672,672,672,672,671,671,672,671,671,671,671,671,671,671,671,671,671,671,671,671,671,671,671,671,671,671,671,671,671,671,671,671,671,671,671,671,670,670,670,670,671,671,670,670,685,685,684,684,684,683,683,683,683,682,682,682,681,681,680,680,680,680,680,679,679,679,679,678,678,678,678,678,678,677,676,676,676,676,675,675,675,675,674,674,674,673,673,673,2047,2047,2047,2047,2047,2047,2047,2047
2047,2047,2047,2047,2047,2047,2047,2047,2047,2047,2047,2047,2047,2047,2047,2047,2047,2047,2047,2047,2047,2047,2047,2047,2047,2047,2047,2047,2047,2047,2047,2047,2047,2047,2047,2047,2047,2047,2047,2047,2047,659,659,659,659,659,659,659,659,660,660,660,660,660,661,660,661,661,661,662,661,661,661,661,662,662,662,662,663,663,663,663,663,663,663,663,663,663,663,663,663,663,664,663,664,664,664,664,664,664,664,664,664,664,664,664,664,664,664,664,665,664,665,665,665,666,666,666,666,665,666,665,665,665,665,665,665,665,665,665,665,665,666,666,667,666,666,666,666,666,666,666,666,666,666,666,667,666,666,667,666,667,667,667,666,667,666,666,666,666,666,666,665,665,665,665,665,665,665,665,666,666,666,666,666,666,666,666,665,665,666,666,665,665,666,666,666,666,666,666,667,666,666,666,666,666,666,666,666,666,666,666,666,666,666,666,666,666,666,666,666,665,665,665,666,665,665,665,665,666,665,666,665,665,665,665,665,665,665,665,666,666,666,666,665,665,665,665,665,665,665,665,665,665,665,665,665,665,665,665,665,665,665,665,665,665,665,665,665,665,664,665,665,665,665,665,665,665,665,665,665,665,665,665,665,665,665,665,665,665,665,665,665,665,665,665,664,665,664,664,664,2047,2047,2047,2047,2047,2047,2047,2047,2047,2047,2047,2047,2047,2047,2047,2047,2047,2047,2047,2047,2047,2047,2047,2047,2047,2047,2047,2047,2047,460,460,460,459,458,457,457,456,455,2047,455,454,453,453,450,450,451,450,450,449,449,449,448,448,448,447,447,447,447,446,446,446,446,446,446,446,446,446,446,445,445,446,2047,2047,2047,2047,2047,2047,2047,457,457,457,457,457,457,458,458,462,462,2047,463,463,2047,665,665,665,665,665,665,664,664,664,664,664,664,664,664,665,665,665,665,665,665,665,665,665,665,665,665,665,665,665,665,665,665,665,665,666,666,666,665,666,665,665,665,665,665,666,666,666,666,666,666,666,666,667,667,667,667,667,668,667,667,667,667,667,667,667,669,668,668,668,668,668,668,668,669,669,668,668,668,669,670,670,670,670,670,670,670,670,670,670,670,670,670,670,671,671,671,670,670,670,670,670,670,671,671,671,671,671,671,671,671,671,671,671,671,671,671,671,671,671,671,671,671,671,671,671,671,671,671,671,671,671,671,671,671,671,672,672,672,672,672,672,672,671,671,671,671,671,671,671,671,671,671,671,671,671,671,671,671,671,672,672,672,672,672,671,672,672,672,672,672,672,672,672,672,672,672,672,672,671,671,671,671,671,671,671,671,671,671,671,671,671,671,671,671,671,671,671,671,671,671,671,671,671,671,671,671,671,670,671,670,670,671,671,671,671,685,685,684,684,684,683,683,683,682,682,682,682,682,681,680,680,680,680,680,679,679,679,679,678,678,678,678,678,678,677,676,677,676,676,676,675,675,674,674,674,674,674,673,673,2047,2047,2047,2047,2047,2047,2047,2047
2047,2047,2047,2047,2047,2047,2047,2047,2047,2047,2047,2047,2047,2047,2047,2047,2047,2047,2047,2047,2047,2047,2047,2047,2047,2047,2047,2047,2047,2047,2047,2047,2047,2047,2047,2047,2047,2047,2047,2047,659,659,659,659,659,659,659,659,660,660,660,660,661,661,661,661,662,661,661,662,661,661,661,662,662,662,662,663,663,663,663,663,663,663,663,663,663,663,663,663,663,664,664,663,664,664,664,664,664,664,664,665,664,664,664,665,665,665,665,665,665,665,665,665,665,666,666,666,666,666,667,666,666,666,666,665,665,665,665,666,666,666,666,666,667,667,666,666,666,666,666,666,666,666,666,666,667,667,667,667,667,667,667,667,667,667,666,666,666,666,666,666,665,665,665,665,665,665,666,665,666,666,666,666,666,666,666,666,666,666,666,666,665,665,666,666,666,666,666,666,667,666,666,666,666,666,665,666,666,666,666,667,667,667,667,666,666,666,666,666,666,666,666,666,666,666,666,666,666,666,666,666,665,665,665,665,665,665,665,665,665,666,665,666,665,665,665,665,665,665,665,665,665,665,665,665,665,665,665,665,665,665,665,665,665,665,665,665,665,665,665,665,665,665,665,665,665,665,665,665,665,665,665,665,665,665,665,665,665,665,665,665,665,665,665,664,664,665,664,664,664,2047,2047,2047,2047,2047,2047,2047,2047,2047,2047,2047,2047,2047,2047,2047,2047,2047,2047,2047,2047,2047,2047,2047,2047,2047,2047,2047,2047,2047,462,460,460,460,458,458,457,456,455,453,454,454,453,453,453,451,451,450,450,449,449,449,449,448,448,448,447,447,446,446,446,446,446,446,446,446,446,446,446,446,446,446,2047,452,452,453,2047,2047,456,456,456,457,457,457,457,458,458,462,462,462,463,463,468,666,666,666,665,665,665,664,664,664,664,664,664,664,664,665,665,665,665,665,665,665,665,665,665,665,665,665,665,665,665,665,666,666,666,666,666,666,666,666,666,666,666,666,666,666,666,666,666,666,666,666,666,667,667,667,668,667,668,667,668,667,667,667,667,668,668,669,668,668,668,668,668,668,668,669,668,668,669,669,670,670,670,670,670,670,670,670,670,670,670,671,670,671,671,671,671,670,670,670,670,670,671,671,671,671,671,671,671,671,671,671,671,671,671,671,671,671,671,671,671,671,671,671,671,671,671,671,671,671,671,671,671,671,671,671,671,672,672,672,672,672,672,671,671,671,671,671,671,671,671,671,671,671,671,671,671,671,671,671,672,672,672,672,672,672,672,672,672,672,672,672,672,672,672,672,672,672,672,672,671,671,671,671,671,671,671,671,671,671,671,671,671,671,671,671,671,671,671,671,671,671,671,671,671,671,671,671,670,671,670,670,671,671,671,671,684,684,684,684,683,683,683,683,682,682,682,682,682,681,681,681,680,680,680,679,679,679,679,679,678,679,678,678,678,677,676,676,676,675,675,675,675,674,674,674,674,673,673,673,2047,2047,2047,2047,2047,2047,2047,2047
2047,2047,2047,2047,2047,2047,2047,2047,2047,2047,2047,2047,2047,2047,2047,2047,2047,2047,2047,2047,2047,2047,2047,2047,2047,2047,2047,2047,2047,2047,2047,2047,2047,2047,2047,2047,2047,2047,2047,659,659,659,659,659,659,659,659,659,660,660,660,660,660,661,661,661,661,661,662,662,661,662,662,662,662,663,663,663,663,663,663,663,663,663,663,663,663,663,663,663,663,664,664,664,664,664,664,664,664,664,664,664,664,664,664,665,664,664,664,664,665,665,665,665,665,666,666,666,666,666,667,666,666,666,666,666,666,666,666,666,666,666,666,666,667,667,667,667,666,667,667,666,666,666,667,667,667,667,667,667,667,667,667,667,666,667,666,666,666,666,666,666,666,666,666,666,666,666,666,666,666,666,666,666,666,666,666,666,666,666,666,666,666,666,666,666,666,666,666,666,666,666,666,666,666,666,666,666,666,666,666,666,666,666,667,666,666,666,666,666,666,666,665,666,666,666,666,666,666,666,666,666,666,665,665,665,665,665,665,665,665,666,665,665,665,665,665,665,665,665,665,665,665,665,665,665,665,665,665,665,665,665,665,665,665,665,665,665,665,665,665,665,665,664,665,665,665,665,665,665,665,665,665,665,665,665,665,665,665,665,665,665,665,665,664,664,665,665,664,664,664,664,2047,2047,2047,2047,2047,2047,2047,2047,2047,2047,2047,2047,2047,2047,2047,2047,2047,2047,2047,2047,2047,2047,2047,2047,2047,2047,2047,2047,461,460,461,459,458,457,457,456,454,453,454,453,453,453,450,450,450,450,450,449,449,449,449,448,448,447,447,447,447,446,446,446,446,446,447,447,447,447,446,446,446,446,446,452,452,453,454,454,456,456,456,457,456,457,457,458,459,461,461,463,465,468,468,666,666,666,666,665,665,665,664,665,664,664,664,664,664,665,665,665,665,665,665,665,665,665,665,665,665,665,665,665,665,665,665,666,666,666,666,666,666,666,666,666,666,666,666,666,666,666,666,666,666,666,666,667,667,667,668,667,667,667,668,667,667,667,668,668,668,668,668,669,669,669,669,668,669,669,669,669,669,669,670,670,670,670,670,670,670,670,670,670,670,671,670,671,671,670,670,670,670,670,670,671,671,671,671,671,671,671,671,671,671,671,671,671,671,671,671,671,671,671,671,671,671,671,671,671,671,671,671,671,671,671,671,672,672,672,672,672,672,672,672,672,672,671,671,671,671,671,671,671,671,671,671,671,671,671,671,671,671,671,672,672,672,672,672,672,672,672,672,672,672,672,672,672,672,672,671,671,672,671,671,671,671,671,671,671,671,671,671,671,671,671,671,671,671,671,671,671,671,671,671,671,671,671,671,671,671,671,670,671,670,670,671,671,671,672,684,684,684,684,684,683,683,683,682,682,682,682,681,681,681,681,680,680,680,680,679,679,679,679,678,679,678,678,677,677,676,676,676,676,675,675,675,675,674,674,674,674,673,673,2047,2047,2047,2047,2047,2047,2047,2047
2047,2047,2047,2047,2047,2047,2047,2047,2047,2047,2047,2047,2047,2047,2047,2047,2047,2047,2047,2047,2047,2047,2047,2047,2047,2047,2047,2047,2047,2047,2047,2047,2047,2047,2047,2047,659,659,659,659,659,659,659,659,659,659,659,659,660,660,660,660,661,661,661,661,662,661,662,662,662,662,662,662,663,663,663,663,663,663,663,663,663,663,663,663,663,664,663,663,664,664,664,664,664,664,664,664,664,664,664,664,664,664,664,665,664,664,664,664,665,665,665,665,665,666,666,666,666,667,667,667,666,666,666,666,666,666,665,666,666,665,665,666,667,667,667,667,667,667,667,667,666,667,667,667,667,667,667,667,667,667,667,667,666,666,666,666,666,666,666,666,666,666,666,666,666,666,666,666,666,666,666,666,666,666,666,666,666,666,666,666,666,666,666,666,666,666,666,666,666,666,666,666,666,666,666,666,667,667,667,667,667,667,667,667,666,666,666,666,666,666,666,666,666,666,666,666,666,666,666,666,666,666,666,666,666,666,666,665,665,666,666,666,666,665,665,665,665,665,665,665,665,665,665,665,665,665,665,665,665,665,665,665,665,666,665,665,665,665,665,665,665,664,665,665,665,665,665,665,665,665,665,665,665,665,665,665,665,665,665,665,665,665,665,665,665,665,664,664,664,2047,2047,2047,2047,2047,2047,2047,2047,2047,2047,2047,2047,2047,2047,2047,2047,2047,2047,2047,2047,2047,2047,2047,2047,2047,2047,2047,2047,2047,461,460,460,459,458,457,455,454,454,453,454,453,453,452,450,450,450,450,450,449,449,449,449,448,448,448,447,447,447,446,447,447,447,447,447,447,447,447,446,446,446,447,448,450,450,454,454,455,456,456,456,456,456,457,457,458,458,458,465,465,466,467,466,466,666,666,666,665,665,665,665,665,665,664,665,664,665,665,665,665,665,665,665,665,665,665,665,665,665,665,665,665,665,665,665,666,666,666,666,666,666,666,666,666,666,666,666,666,666,666,666,666,666,666,666,667,667,667,668,667,667,667,668,668,668,668,668,668,669,669,669,669,669,669,669,668,668,669,668,668,669,669,670,670,670,670,670,670,670,670,670,670,670,671,670,671,670,670,670,670,670,671,671,671,671,671,671,671,671,671,671,671,671,671,671,671,671,671,671,671,671,671,671,671,671,671,671,671,671,671,671,671,671,671,671,672,672,672,672,672,672,672,672,672,672,671,671,671,671,671,671,671,671,671,671,671,671,671,671,671,671,671,672,672,672,672,672,672,672,672,672,672,672,672,672,672,672,672,672,671,672,671,671,671,671,671,671,672,671,672,671,672,672,671,671,671,671,671,671,671,671,671,671,671,671,671,671,671,671,671,671,671,670,670,671,671,671,671,684,684,684,684,684,683,683,682,682,682,682,681,681,681,681,681,681,680,680,679,679,679,679,679,678,679,678,678,677,677,676,676,676,675,675,675,675,675,675,674,674,674,674,674,2047,2047,2047,2047,2047,2047,2047,2047
2047,2047,2047,2047,2047,2047,2047,2047,2047,2047,2047,2047,2047,2047,2047,2047,2047,2047,2047,2047,2047,2047,2047,2047,2047,2047,2047,2047,2047,2047,2047,2047,2047,2047,2047,658,658,658,659,659,659,659,659,660,659,659,659,659,660,660,660,660,660,661,661,661,662,661,662,662,662,662,662,663,663,663,663,663,663,663,663,663,663,663,663,663,663,664,663,663,663,664,664,664,664,664,664,664,664,665,665,665,664,664,665,665,665,665,665,665,665,665,665,665,665,666,666,666,666,667,667,667,667,666,666,666,666,666,666,666,666,666,666,667,667,667,667,667,666,666,667,667,666,667,667,667,667,667,667,667,667,667,667,667,667,667,667,666,666,666,666,666,666,666,666,666,666,666,666,666,666,666,666,666,666,666,666,666,666,666,666,666,666,666,666,666,666,666,666,665,666,666,666,666,666,666,666,666,667,667,666,667,667,667,667,667,666,666,666,666,666,666,666,666,666,666,666,666,666,666,666,666,666,666,666,666,666,666,665,665,665,666,665,665,665,665,665,666,666,665,666,666,665,666,665,665,665,665,665,665,665,665,665,665,665,666,665,665,665,665,665,665,665,665,665,665,665,665,665,665,665,665,665,665,665,665,665,665,665,665,665,665,665,665,665,665,665,665,665,664,664,2047,2047,2047,2047,2047,2047,2047,2047,2047,2047,2047,2047,2047,2047,2047,2047,2047,2047,2047,2047,2047,2047,2047,2047,2047,2047,2047,2047,2047,461,460,460,459,457,457,456,455,455,453,454,453,452,452,450,450,451,450,450,449,449,449,449,449,449,448,447,447,447,446,447,447,447,447,447,447,447,447,446,446,446,446,446,450,450,454,454,456,456,457,457,457,457,457,457,458,458,458,465,465,466,466,466,466,666,666,666,665,665,665,664,665,664,664,664,664,664,665,665,665,665,665,665,665,665,665,665,665,665,665,665,665,665,665,666,666,666,666,666,666,666,666,666,666,666,666,666,666,666,666,666,666,666,666,666,666,667,667,667,667,667,667,667,668,668,668,668,669,669,669,669,669,669,669,669,668,669,669,668,668,669,669,670,670,670,670,670,670,670,670,670,670,670,671,671,671,671,671,671,670,670,671,671,671,671,671,671,671,671,671,671,671,671,671,671,671,671,671,671,671,671,671,671,671,671,671,671,671,671,671,671,671,671,671,671,672,672,672,672,672,672,672,672,672,672,671,671,671,671,671,671,671,671,671,671,671,671,671,671,671,671,671,672,672,672,672,672,672,672,672,672,672,672,672,672,672,672,672,672,672,672,672,672,671,672,672,672,672,672,672,671,672,672,671,671,671,671,671,671,671,671,671,671,671,671,671,671,671,671,671,670,671,670,670,671,671,671,671,685,685,684,684,684,683,683,683,682,682,682,681,681,681,681,681,681,680,680,680,679,679,679,679,679,679,678,678,677,677,676,676,676,676,675,675,675,675,675,675,674,674,674,674,2047,2047,2047,2047,2047,2047,2047,2047
2047,2047,2047,2047,2047,2047,2047,2047,2047,2047,2047,2047,2047,2047,2047,2047,2047,2047,2047,2047,2047,2047,2047,2047,2047,2047,2047,2047,2047,2047,2047,2047,2047,658,658,658,658,658,659,659,659,659,659,660,660,660,659,660,660,660,660,660,660,661,661,660,661,661,662,662,662,662,662,663,663,663,663,663,663,663,663,663,663,663,663,663,663,664,664,663,664,664,664,664,664,664,664,664,665,665,665,665,664,664,665,665,665,665,665,665,665,665,665,665,665,666,666,666,666,667,667,667,667,666,666,666,666,666,666,666,666,666,666,667,667,667,666,666,666,666,667,667,666,667,667,667,667,667,667,667,667,667,667,667,667,667,667,667,667,667,666,667,666,666,666,666,666,666,666,666,666,666,666,666,666,666,666,667,666,666,666,666,666,666,666,666,666,666,666,666,666,666,666,666,666,666,666,666,667,667,667,667,667,667,667,667,666,666,666,666,666,666,666,666,666,666,666,666,666,666,666,666,666,666,666,666,666,666,665,665,665,665,665,666,666,665,666,666,666,666,666,666,666,666,665,665,665,665,665,665,665,665,665,665,665,666,665,665,666,665,665,665,665,665,665,665,665,665,665,665,665,665,665,665,665,665,665,665,665,665,665,665,665,665,665,665,665,665,664,664,664,663,2047,2047,2047,2047,2047,2047,2047,2047,2047,2047,2047,2047,2047,2047,2047,2047,2047,2047,2047,2047,2047,2047,2047,2047,2047,2047,2047,2047,460,460,460,459,457,456,456,455,455,454,454,453,452,452,450,450,450,450,450,449,449,449,448,449,448,447,447,447,447,446,447,447,447,447,447,447,447,446,446,447,446,446,446,452,453,454,455,456,456,456,456,457,457,457,457,457,458,458,462,465,465,466,465,465,463,666,665,665,665,665,665,665,665,664,664,664,664,665,665,665,665,665,665,665,665,665,665,665,665,665,665,665,665,666,666,666,666,666,666,666,666,666,666,666,666,666,666,666,666,666,666,666,666,666,666,667,667,667,667,667,667,667,667,667,668,668,668,668,669,669,669,669,669,669,669,668,668,669,668,668,669,669,670,670,670,670,670,670,670,670,670,670,670,670,670,670,670,670,670,670,670,671,670,671,671,671,671,671,671,671,671,671,671,671,671,671,671,671,671,671,671,671,671,671,671,671,671,671,671,671,671,672,672,671,672,672,673,673,672,672,672,672,672,672,672,672,672,672,672,672,672,672,672,672,672,671,671,671,671,671,671,672,672,672,672,672,672,672,672,672,672,672,672,672,672,672,672,672,672,672,672,672,672,672,672,672,672,672,672,672,672,672,672,672,671,671,671,671,671,671,671,671,671,671,671,671,671,671,671,671,671,671,671,670,671,671,670,670,685,685,684,684,684,683,683,683,682,682,681,681,681,681,680,681,680,680,680,680,679,679,679,679,679,679,678,678,677,677,676,676,676,676,676,675,675,675,675,675,674,674,674,674,2047,2047,2047,2047,2047,2047,2047,2047
2047,2047,2047,2047,2047,2047,2047,2047,2047,2047,2047,2047,2047,2047,2047,2047,2047,2047,2047,2047,2047,2047,2047,2047,2047,2047,2047,2047,2047,2047,2047,2047,658,658,659,659,659,659,659,659,659,659,660,660,660,660,660,660,660,661,660,661,661,661,661,660,661,661,662,662,662,663,663,663,663,663,663,663,663,663,663,663,663,663,663,663,663,664,664,664,664,664,664,664,664,664,664,664,665,664,665,665,665,665,665,665,665,665,665,665,665,665,664,665,665,666,666,666,666,667,667,667,667,667,667,666,666,666,666,666,666,666,666,667,667,667,666,666,666,666,666,666,666,666,666,667,667,667,667,667,667,667,667,667,667,667,667,667,667,667,666,666,666,666,666,666,666,666,666,666,666,666,666,666,666,666,666,666,666,666,666,666,666,666,666,666,666,666,666,666,666,666,666,666,666,666,666,666,667,667,667,667,667,667,667,667,666,666,667,666,667,667,667,666,666,666,666,666,666,666,666,666,666,666,666,666,666,666,665,665,665,666,666,666,666,666,666,666,666,666,666,666,666,666,665,665,665,665,665,665,665,665,665,665,665,666,665,665,665,665,665,665,665,665,665,665,665,665,665,665,665,665,665,665,665,665,665,665,665,665,665,665,665,665,665,665,665,665,664,664,664,664,2047,2047,2047,2047,2047,2047,2047,2047,2047,2047,2047,2047,2047,2047,2047,2047,2047,2047,2047,2047,2047,2047,2047,2047,2047,2047,2047,2047,2047,460,459,457,457,456,456,455,454,453,454,453,451,451,450,450,450,450,450,450,449,449,448,448,448,447,447,447,447,446,447,447,447,447,447,446,447,446,447,447,447,447,450,451,451,453,454,456,456,456,456,457,457,457,457,458,459,464,462,465,465,465,465,465,463,463,665,665,665,665,665,665,665,665,664,664,664,665,665,665,665,665,665,665,665,665,665,665,665,665,665,666,665,666,666,666,666,666,666,666,666,666,666,666,666,666,666,666,666,666,666,666,666,666,667,667,667,667,667,667,667,667,667,668,668,668,668,669,669,669,669,669,669,669,669,668,669,669,668,669,669,669,670,670,670,670,670,671,670,670,670,670,670,670,670,670,670,670,670,670,670,671,670,671,671,671,671,671,671,671,671,671,671,671,671,671,671,671,671,671,671,671,671,671,671,671,671,671,671,671,671,672,672,671,672,672,673,673,672,673,673,673,673,672,672,672,672,672,672,672,672,672,672,672,672,672,672,672,671,671,672,672,672,672,672,672,672,672,672,672,672,672,672,672,672,672,672,672,672,672,672,672,672,672,672,672,672,672,672,672,672,672,672,671,671,671,671,671,671,671,671,671,671,670,671,671,671,671,671,671,671,671,670,670,671,670,669,669,686,686,685,684,684,683,683,683,682,682,682,681,681,680,680,681,680,680,680,679,679,679,679,679,679,678,678,678,678,677,676,676,676,676,676,675,675,675,675,675,674,674,673,673,2047,2047,2047,2047,2047,2047,2047,2047
2047,2047,2047,2047,2047,2047,2047,2047,2047,2047,2047,2047,2047,2047,2047,2047,2047,2047,2047,2047,2047,2047,2047,2047,2047,2047,2047,2047,2047,2047,2047,658,659,659,659,659,659,659,659,659,659,659,660,660,660,660,660,660,661,660,660,660,660,660,660,660,661,661,662,662,663,663,663,663,663,663,663,663,663,663,663,663,663,663,663,663,663,664,664,664,664,664,664,664,664,664,664,664,664,664,665,665,664,664,664,665,664,665,665,665,665,665,665,665,665,665,666,666,666,667,667,667,667,667,666,666,666,666,666,666,666,666,666,667,667,667,667,667,667,667,667,667,667,667,667,667,667,667,667,667,667,667,667,667,667,667,667,667,667,667,667,667,666,666,666,666,666,666,666,666,666,666,666,666,666,666,666,666,666,666,666,666,666,666,666,666,666,666,666,666,666,666,666,666,666,667,666,667,667,667,667,667,667,666,667,667,666,666,667,666,667,667,667,667,666,666,666,666,666,666,666,666,666,667,666,666,667,666,666,665,665,666,666,666,666,666,666,666,666,666,666,666,666,666,665,665,665,665,665,665,665,665,665,665,665,666,666,666,666,665,665,665,665,665,665,665,665,665,665,665,665,665,665,665,665,665,665,665,665,665,665,665,665,665,665,665,665,665,665,665,665,665,2047,2047,2047,2047,2047,2047,2047,2047,2047,2047,2047,2047,2047,2047,2047,2047,2047,2047,2047,2047,2047,2047,2047,2047,2047,2047,2047,2047,2047,460,461,457,456,456,455,455,454,453,453,452,451,450,450,450,450,450,449,449,449,449,448,448,448,448,448,447,447,447,447,447,447,447,447,446,446,446,448,448,448,449,451,451,451,452,454,456,456,456,456,457,457,457,457,458,458,462,462,465,465,465,465,465,463,462,665,665,665,665,665,665,665,665,665,664,665,665,665,665,665,665,665,665,665,665,665,665,666,665,666,666,665,666,666,666,666,666,666,666,666,666,666,666,666,666,666,666,666,666,666,667,666,667,667,667,666,667,667,667,667,667,667,667,668,668,668,669,669,669,669,669,669,669,669,669,669,669,668,668,669,669,670,670,670,670,670,671,670,670,670,670,670,670,670,670,670,670,670,670,670,670,670,670,671,671,671,671,671,671,671,671,671,671,671,671,671,671,671,671,671,671,672,671,671,672,671,671,671,671,671,671,671,671,672,672,672,673,672,673,673,672,673,672,672,672,672,672,672,672,672,672,672,672,672,672,672,672,671,671,672,672,672,673,672,672,673,672,672,672,672,672,673,673,673,672,673,672,672,672,672,672,672,672,672,673,673,672,672,672,672,672,672,671,671,671,671,671,671,671,670,671,671,670,671,671,671,671,671,671,671,671,670,670,671,669,668,668,687,687,685,684,684,683,683,683,683,682,683,682,681,681,681,681,680,680,680,679,679,679,679,679,679,679,679,678,678,677,677,677,676,676,676,676,675,675,675,675,675,674,673,673,2047,2047,2047,2047,2047,2047,2047,2047
2047,2047,2047,2047,2047,2047,2047,2047,2047,2047,2047,2047,2047,2047,2047,2047,2047,2047,2047,2047,2047,2047,2047,2047,2047,2047,2047,2047,2047,2047,2047,658,659,659,659,659,659,659,659,659,659,659,659,660,660,660,660,660,661,661,660,661,661,660,660,660,661,662,662,662,663,663,663,663,663,663,663,663,663,663,663,663,663,663,663,664,664,664,664,664,664,664,664,664,664,664,664,664,664,664,664,664,664,664,664,665,665,665,665,665,665,665,665,665,665,666,666,666,666,667,667,667,667,667,666,666,666,666,666,666,666,667,667,667,667,667,667,667,667,666,666,667,666,667,667,667,667,667,667,667,667,667,667,667,667,667,667,666,666,666,667,667,666,666,666,667,666,666,666,666,666,666,666,666,667,666,666,666,666,666,666,666,666,666,666,666,666,666,666,666,666,666,666,666,666,666,666,667,667,667,667,667,667,667,667,667,667,667,667,666,667,667,667,667,666,666,666,666,666,666,666,666,666,666,667,666,666,666,666,665,665,665,665,666,666,666,666,666,666,666,666,666,666,666,666,665,665,665,665,665,665,665,665,665,665,666,666,666,666,666,666,665,665,665,665,665,665,665,665,665,665,665,665,665,665,665,665,664,665,665,665,665,665,665,665,665,665,665,665,665,665,665,2047,2047,2047,2047,2047,2047,2047,2047,2047,2047,2047,2047,2047,2047,2047,2047,2047,2047,2047,2047,2047,2047,2047,2047,2047,2047,2047,2047,2047,2047,458,457,456,456,456,455,454,453,454,453,453,450,450,450,450,450,449,449,449,449,448,448,448,448,447,447,447,447,447,447,447,447,447,446,447,446,447,448,448,448,450,450,450,452,453,456,456,456,457,458,457,457,457,458,459,461,462,464,465,465,465,465,463,463,665,665,665,665,665,665,665,665,665,665,665,665,665,665,665,665,665,665,665,665,665,665,665,665,665,666,665,665,665,665,666,666,666,666,666,666,666,666,666,666,666,666,666,666,666,666,666,666,666,666,666,666,667,667,667,667,667,667,668,668,668,669,669,669,669,669,669,669,669,669,669,669,669,669,669,669,670,670,670,670,671,671,670,671,670,670,670,670,670,670,670,670,670,670,670,670,670,670,671,671,671,671,671,671,671,671,671,671,671,671,671,671,671,671,671,671,671,671,671,672,671,671,671,671,671,671,671,671,672,672,672,672,672,672,672,672,672,672,672,672,672,672,672,672,673,673,673,672,672,672,672,672,672,672,672,672,673,673,673,673,673,672,672,672,672,672,672,672,672,672,672,672,672,672,672,672,672,672,672,673,673,672,672,672,672,672,672,671,670,670,670,670,670,670,670,670,670,670,670,670,670,671,671,671,671,671,670,670,670,668,667,667,687,687,685,684,684,683,683,683,683,682,683,682,681,681,681,681,681,680,680,680,679,679,680,679,679,679,678,678,678,677,677,677,676,676,676,676,675,674,675,675,675,674,673,673,2047,2047,2047,2047,2047,2047,2047,2047
2047,2047,2047,2047,2047,2047,2047,2047,2047,2047,2047,2047,2047,2047,2047,2047,2047,2047,2047,2047,2047,2047,2047,2047,2047,2047,2047,2047,2047,2047,658,658,659,658,658,658,659,659,659,659,659,659,660,660,660,660,660,661,661,661,660,661,661,660,660,660,661,662,662,662,663,663,663,663,663,663,663,664,664,663,663,663,663,664,663,664,664,664,664,664,664,664,664,664,664,664,665,665,665,664,664,664,664,664,664,664,665,665,665,665,665,666,665,665,665,665,666,666,666,667,666,667,666,666,666,666,666,666,666,666,666,667,667,667,667,667,667,667,667,667,667,667,667,667,667,667,667,667,667,667,667,667,667,667,667,667,667,666,667,667,667,667,667,667,666,667,666,667,666,666,667,667,667,667,667,666,666,666,666,666,666,666,666,666,667,667,666,667,667,666,666,666,666,666,667,667,666,667,667,667,667,667,667,667,667,667,667,667,667,667,667,667,667,667,666,666,666,666,666,666,666,666,666,666,667,667,667,666,666,666,665,665,666,666,666,666,666,666,666,666,666,666,666,666,666,666,665,665,665,665,665,665,665,665,666,666,666,666,666,666,666,666,665,665,665,665,665,665,665,665,665,665,665,665,665,665,665,665,665,665,665,665,665,665,665,665,665,665,665,665,665,666,666,2047,2047,2047,2047,2047,2047,2047,2047,2047,2047,2047,2047,2047,2047,2047,2047,2047,2047,2047,2047,2047,2047,2047,2047,2047,2047,2047,2047,2047,458,457,456,456,455,454,454,453,453,453,453,450,450,450,450,450,450,449,449,449,448,448,448,448,447,447,448,448,447,447,447,447,447,447,446,446,448,449,449,449,453,453,453,453,454,456,455,456,457,458,457,457,457,459,459,461,461,464,465,465,464,464,462,665,665,665,665,665,665,665,665,665,665,665,665,665,665,665,665,665,665,665,665,665,665,665,665,665,665,665,665,665,665,665,666,666,666,666,666,666,666,666,666,666,666,666,666,666,666,666,666,666,666,666,666,666,666,666,667,666,667,667,668,668,668,668,669,669,669,669,669,669,669,669,669,669,669,669,669,669,671,671,671,670,670,670,670,670,670,670,670,670,670,670,670,670,670,670,670,670,670,670,671,671,671,671,671,672,672,672,672,671,671,671,671,671,671,671,671,672,672,671,672,672,671,671,671,671,671,671,671,671,672,672,672,672,672,673,673,673,672,672,672,672,672,672,672,672,673,673,673,672,672,672,672,672,672,672,672,673,673,673,673,673,673,673,672,672,672,672,673,672,673,673,673,672,673,672,673,672,672,672,672,673,673,672,672,672,672,672,671,671,670,670,669,669,669,669,669,669,670,670,670,670,670,671,671,671,671,670,670,669,669,666,664,663,663,688,685,684,684,683,683,683,683,682,684,683,683,656,681,681,680,680,680,679,679,679,679,679,679,678,678,677,678,677,677,676,676,676,676,675,675,675,675,675,675,674,674,674,2047,2047,2047,2047,2047,2047,2047,2047
2047,2047,2047,2047,2047,2047,2047,2047,2047,2047,2047,2047,2047,2047,2047,2047,2047,2047,2047,2047,2047,2047,2047,2047,2047,2047,2047,2047,2047,2047,660,659,659,659,659,659,659,659,659,659,660,659,660,660,660,661,660,661,661,661,661,661,661,661,661,660,661,662,662,662,663,663,663,663,663,663,663,663,663,663,663,663,663,664,663,664,664,664,664,664,664,664,664,664,664,664,665,665,665,664,664,664,664,664,664,665,665,665,665,665,665,665,665,665,665,665,666,666,666,666,666,666,666,666,666,665,666,665,666,666,666,666,666,667,667,667,667,667,667,666,666,667,666,666,666,667,667,667,667,667,667,667,667,667,667,667,667,667,667,666,667,667,666,667,667,667,667,667,666,666,667,667,667,667,667,667,667,667,666,666,666,666,666,666,666,667,666,666,667,666,666,666,666,666,667,666,666,666,667,667,667,667,667,667,667,667,667,667,667,667,667,667,667,667,666,666,665,666,666,666,666,666,666,666,667,666,667,666,666,666,666,666,666,666,666,666,666,666,666,666,666,666,666,666,666,666,666,665,665,666,665,665,665,665,665,666,666,666,666,666,666,666,666,666,665,665,665,665,665,665,665,665,665,665,665,665,665,665,665,665,665,665,665,665,665,665,665,665,665,665,665,666,669,2047,2047,2047,2047,2047,2047,2047,2047,2047,2047,2047,2047,2047,2047,2047,2047,2047,2047,2047,2047,2047,2047,2047,2047,2047,2047,2047,2047,2047,458,457,456,456,455,455,454,453,453,453,453,450,450,450,450,450,450,450,449,449,448,448,448,448,448,447,448,447,447,447,447,446,447,446,446,447,448,449,449,452,453,453,453,453,454,455,455,456,457,458,458,458,459,460,460,462,466,466,466,465,464,464,664,664,664,665,665,665,665,665,665,665,665,665,665,665,665,665,665,665,665,665,665,665,665,665,665,665,665,666,665,665,665,666,666,666,666,666,666,666,666,666,666,666,666,666,666,666,666,666,666,666,667,666,666,667,666,667,667,667,667,667,668,668,668,668,668,669,669,669,669,669,669,669,669,669,669,669,669,669,671,670,671,670,670,670,670,670,670,670,670,670,670,670,670,670,670,670,670,670,670,671,671,671,671,671,672,672,672,672,672,672,671,672,671,671,671,671,671,672,672,671,672,672,672,672,671,671,671,671,671,671,672,672,672,672,672,673,673,673,673,673,673,673,672,672,672,673,673,673,672,673,673,672,672,672,672,672,672,673,673,673,673,673,673,673,672,672,672,672,672,672,672,673,673,672,673,673,673,673,672,672,672,673,673,672,672,672,672,671,671,670,669,669,668,667,667,666,664,663,662,670,671,670,670,670,671,671,671,670,670,659,662,662,661,661,660,659,659,685,685,686,688,686,686,686,657,657,657,657,657,656,656,680,680,679,679,679,680,680,679,679,679,678,679,677,677,677,677,676,676,675,673,675,675,675,675,673,673,674,2047,2047,2047,2047,2047,2047,2047,2047
2047,2047,2047,2047,2047,2047,2047,2047,2047,2047,2047,2047,2047,2047,2047,2047,2047,2047,2047,2047,2047,2047,2047,2047,2047,2047,2047,2047,2047,2047,660,659,659,659,659,659,659,659,660,659,660,660,660,660,660,661,661,661,661,661,661,661,661,661,661,661,661,662,662,662,663,663,663,663,663,663,664,664,664,664,664,664,663,664,664,664,664,664,664,664,664,664,664,664,664,664,664,665,664,664,664,664,664,664,665,665,665,665,665,665,666,666,665,665,665,665,665,666,666,666,666,666,666,666,666,666,666,666,666,666,666,666,667,667,667,667,667,667,667,666,666,667,667,667,667,667,667,667,667,667,667,667,667,667,667,667,667,667,667,667,667,667,667,667,667,667,666,666,666,666,667,667,667,667,667,667,667,667,666,666,666,666,667,667,667,667,667,667,667,667,666,666,666,666,666,666,666,666,667,667,667,667,667,667,667,667,667,667,667,667,667,667,667,667,666,666,666,666,666,666,666,666,666,666,667,666,666,667,666,666,666,666,666,667,667,666,666,666,666,666,666,666,666,666,666,666,666,666,666,666,665,665,665,665,665,666,666,665,666,666,666,666,666,666,665,665,665,665,665,665,665,665,665,665,665,665,665,665,665,665,665,665,665,665,665,666,665,665,665,666,666,667,669,2047,2047,2047,2047,2047,2047,2047,2047,2047,2047,2047,2047,2047,2047,2047,2047,2047,2047,2047,2047,2047,2047,2047,2047,2047,2047,2047,2047,2047,458,457,457,456,455,455,454,453,453,453,453,451,451,451,450,450,450,450,449,449,449,449,449,448,448,448,448,448,447,447,447,446,447,447,447,447,449,449,450,452,453,453,453,453,454,455,455,456,457,458,458,458,460,461,460,462,462,466,466,466,661,662,662,663,664,664,665,665,665,665,665,665,665,665,665,665,665,665,665,665,665,665,665,665,665,665,666,666,666,666,666,665,666,666,666,666,666,666,666,666,666,666,666,666,666,666,667,666,667,667,666,667,667,667,666,666,666,666,667,666,666,667,667,668,668,668,668,669,669,669,669,669,669,669,669,669,669,669,669,669,671,671,671,670,671,670,670,670,670,670,670,670,670,670,670,670,670,670,670,670,671,671,671,671,671,671,672,672,672,672,672,672,672,672,671,671,671,671,671,671,672,671,672,672,671,671,671,671,671,672,671,671,672,672,672,672,672,672,673,673,673,673,673,673,673,672,673,673,673,673,673,673,673,672,672,672,672,672,673,673,673,673,673,673,673,673,673,672,672,672,672,672,672,673,673,672,673,673,673,673,672,673,673,673,673,673,672,672,672,671,671,670,669,668,667,666,665,663,662,662,660,659,659,670,670,670,671,671,671,658,659,659,659,660,660,660,660,659,658,685,686,686,688,688,687,687,657,657,658,657,657,658,657,658,658,656,655,655,655,679,679,679,679,680,681,679,678,678,677,677,677,675,673,674,674,675,673,673,672,2047,2047,2047,2047,2047,2047,2047,2047,2047
2047,2047,2047,2047,2047,2047,2047,2047,2047,2047,2047,2047,2047,2047,2047,2047,2047,2047,2047,2047,2047,2047,2047,2047,2047,2047,2047,2047,2047,660,660,660,659,660,660,659,659,659,659,660,660,660,660,660,660,660,660,661,661,661,661,661,661,661,661,661,662,662,662,662,663,663,663,663,663,663,663,664,664,664,664,664,664,664,664,664,664,664,664,664,664,664,664,664,664,664,664,664,664,664,664,664,664,664,665,665,665,665,665,665,665,665,665,665,665,665,665,666,666,666,666,666,666,666,666,666,666,666,666,666,666,667,667,667,667,667,667,667,667,667,667,667,667,667,667,667,667,667,667,667,667,667,667,667,667,667,667,667,667,667,667,667,667,667,667,667,667,667,666,667,667,667,667,667,667,667,667,667,666,666,666,666,667,667,667,667,667,667,667,667,667,667,666,666,667,667,667,667,668,667,667,668,667,667,667,667,667,667,668,667,667,667,667,667,667,667,666,666,666,666,666,666,666,666,667,667,667,667,667,667,667,667,667,667,667,666,666,666,666,666,666,666,666,666,666,666,666,666,666,666,665,666,665,665,666,666,666,666,666,666,666,666,666,666,665,665,665,666,666,666,666,666,666,666,666,665,665,665,665,665,665,665,665,665,666,666,665,666,666,666,666,667,669,2047,2047,2047,2047,2047,2047,2047,2047,2047,2047,2047,2047,2047,2047,2047,2047,2047,2047,2047,2047,2047,2047,2047,2047,2047,2047,2047,2047,2047,460,458,457,456,455,455,454,453,454,453,453,452,452,452,451,451,450,450,449,449,449,449,448,448,448,448,448,448,447,447,447,447,447,448,447,449,449,450,450,452,453,453,453,453,453,454,455,456,457,458,458,458,459,461,458,458,467,467,467,467,661,661,663,664,664,665,665,665,665,665,665,665,665,665,665,665,665,665,665,665,665,665,665,665,665,665,666,666,666,666,666,665,666,666,666,666,666,666,666,666,666,666,666,666,666,666,666,666,667,667,667,667,667,667,666,667,666,667,667,667,667,667,668,668,669,668,668,669,669,669,669,669,669,669,669,669,669,669,670,669,671,670,671,670,670,670,670,670,670,670,670,670,670,670,670,670,671,671,671,671,671,671,671,671,671,671,672,672,672,672,672,672,672,672,672,672,672,672,672,672,672,672,672,672,672,671,671,671,671,671,671,671,672,672,672,672,672,673,673,673,673,673,673,673,673,673,673,673,673,673,673,673,673,672,672,672,672,672,673,673,673,673,673,674,673,673,673,673,673,672,672,672,672,673,672,672,673,673,673,673,673,673,672,673,673,673,672,672,672,671,671,670,669,668,666,665,664,663,662,662,660,659,659,659,659,659,658,658,658,658,658,658,659,660,660,660,659,659,658,659,658,658,658,657,658,658,658,658,658,657,658,658,658,658,659,658,658,658,656,655,655,655,655,684,684,681,679,678,678,675,675,674,674,674,675,675,676,676,656,656,2047,2047,2047,2047,2047,2047,2047,2047
2047,2047,2047,2047,2047,2047,2047,2047,2047,2047,2047,2047,2047,2047,2047,2047,2047,2047,2047,2047,2047,2047,2047,2047,2047,2047,2047,2047,2047,660,660,660,659,660,660,659,659,659,660,660,660,659,659,660,660,660,660,661,661,661,661,661,661,661,661,661,662,662,662,662,663,663,663,663,663,663,663,663,663,663,664,664,663,664,664,664,664,664,664,664,664,664,664,664,664,664,664,664,664,664,664,664,664,664,665,665,665,666,666,666,666,666,666,666,665,665,665,666,665,666,666,666,666,666,666,666,666,666,666,666,666,667,667,667,667,667,667,667,667,667,666,667,667,667,667,667,667,667,667,667,667,667,667,667,667,667,667,667,667,667,667,667,667,667,667,667,667,667,667,667,667,667,667,667,667,667,667,667,666,666,666,667,667,667,667,667,667,667,667,667,667,667,667,667,667,667,667,667,668,668,668,668,668,668,667,668,668,668,668,668,667,667,667,667,667,667,666,667,666,666,666,666,666,666,667,666,667,667,667,667,667,667,667,667,667,666,666,666,666,666,666,665,666,666,666,666,666,666,666,667,666,666,665,665,665,666,666,665,666,666,666,666,666,666,665,665,666,666,666,666,666,666,666,666,666,666,665,665,665,665,665,666,666,666,666,666,666,666,666,666,667,668,671,2047,2047,2047,2047,2047,2047,2047,2047,2047,2047,2047,2047,2047,2047,2047,2047,2047,2047,2047,2047,2047,2047,2047,2047,2047,2047,2047,2047,2047,460,458,457,456,455,454,453,453,453,453,453,451,451,451,451,450,450,450,449,449,449,449,449,449,448,448,448,448,448,447,447,447,447,447,447,449,450,450,450,451,452,452,452,452,453,454,454,456,457,458,458,458,460,461,461,461,469,468,468,468,469,664,664,664,664,665,665,665,665,665,665,665,665,665,665,665,665,665,665,665,665,665,665,666,665,665,666,666,666,666,666,665,666,666,666,666,666,666,666,666,666,666,666,666,666,666,667,667,667,667,667,667,667,667,666,667,666,667,667,667,667,667,668,668,669,669,669,669,669,669,669,669,669,669,669,670,669,670,670,670,671,671,671,670,671,670,670,670,670,670,670,671,671,671,671,671,671,671,671,671,671,671,671,671,671,671,672,672,672,672,672,672,672,672,672,672,672,672,672,672,672,672,672,672,671,671,671,671,671,671,671,671,672,672,672,672,672,673,673,673,673,673,673,673,673,672,673,673,673,673,673,673,673,673,672,672,672,672,673,673,673,674,673,673,673,673,673,673,673,672,672,672,672,673,672,672,673,673,673,673,673,673,673,673,673,673,672,672,672,671,671,670,669,667,666,664,664,662,662,661,659,659,659,659,659,658,658,658,658,658,658,658,659,660,659,659,659,659,658,658,658,658,658,657,658,658,658,658,658,658,658,659,658,659,659,658,658,657,656,655,655,655,655,688,686,686,679,679,658,675,675,675,674,674,658,657,656,656,656,656,2047,2047,2047,2047,2047,2047,2047,2047
2047,2047,2047,2047,2047,2047,2047,2047,2047,2047,2047,2047,2047,2047,2047,2047,2047,2047,2047,2047,2047,2047,2047,2047,2047,2047,2047,2047,662,660,660,660,659,660,659,659,659,659,659,659,659,659,659,660,660,660,660,660,661,661,661,661,661,661,661,662,663,663,663,663,663,663,663,663,663,663,663,663,663,664,664,664,664,664,664,664,664,664,664,664,664,664,664,664,664,664,664,664,664,664,664,665,665,665,665,665,665,666,666,666,666,666,666,666,665,665,665,666,666,666,666,666,666,666,666,666,666,666,666,666,666,667,667,667,667,667,667,667,667,667,667,667,667,667,667,667,667,667,667,667,667,667,667,667,667,667,667,667,667,667,667,667,667,667,667,667,667,667,667,667,667,667,667,667,667,667,667,667,667,667,667,667,667,667,667,667,667,667,667,667,667,667,667,667,667,667,667,667,668,668,668,668,668,668,667,667,667,667,668,667,667,667,667,667,667,667,667,667,667,667,667,666,666,667,667,667,667,667,667,667,667,667,667,667,667,666,666,666,666,666,666,666,666,666,666,667,666,666,666,667,666,666,666,665,666,666,666,666,666,666,666,666,666,666,665,665,666,666,666,666,666,666,666,667,666,666,666,666,666,665,666,666,666,666,666,666,666,666,666,667,667,669,671,2047,2047,2047,2047,2047,2047,2047,2047,2047,2047,2047,2047,2047,2047,2047,2047,2047,2047,2047,2047,2047,2047,2047,2047,2047,2047,2047,2047,461,460,459,458,457,455,455,454,453,453,453,452,452,451,452,451,451,450,450,450,449,449,449,449,449,448,448,449,448,447,447,447,447,447,448,447,449,450,450,450,452,452,452,452,452,452,454,454,455,457,458,458,459,460,461,461,468,468,468,468,469,469,664,664,664,664,665,665,665,665,665,665,665,665,665,665,665,665,665,665,665,665,665,665,666,665,665,666,666,666,666,665,665,666,666,666,666,666,666,666,666,666,666,666,666,666,666,667,667,667,667,667,667,667,667,667,667,666,667,667,667,667,668,668,668,669,669,669,669,669,669,669,669,669,669,669,669,669,670,670,670,671,671,671,671,671,671,671,671,671,670,671,671,671,671,671,671,671,671,671,671,671,671,671,671,671,671,672,672,672,672,672,672,672,672,672,672,672,672,672,672,672,672,672,672,671,671,671,671,671,671,671,671,672,672,672,672,673,673,673,673,673,673,673,673,673,673,673,673,673,673,673,673,673,672,672,672,672,673,673,673,673,674,674,674,673,673,673,673,673,672,672,672,672,673,673,673,673,673,673,673,673,673,672,673,673,673,672,672,672,671,671,670,669,667,666,664,663,662,661,660,659,658,658,658,658,658,658,658,658,658,658,658,659,659,659,659,659,659,659,659,658,658,658,658,658,658,658,658,658,658,658,659,658,659,659,658,658,658,658,656,656,655,655,656,655,655,657,657,658,658,657,657,659,658,658,657,656,656,656,656,2047,2047,2047,2047,2047,2047,2047,2047
2047,2047,2047,2047,2047,2047,2047,2047,2047,2047,2047,2047,2047,2047,2047,2047,2047,2047,2047,2047,2047,2047,2047,2047,2047,2047,2047,660,661,660,660,660,660,660,660,659,659,659,659,659,659,659,659,660,660,660,660,660,661,661,661,661,661,661,662,662,663,663,663,663,663,663,663,663,663,663,663,663,663,663,664,664,664,664,664,664,664,664,664,664,664,664,664,664,664,664,664,665,665,665,665,665,665,665,666,665,666,666,666,666,666,666,666,666,665,665,665,665,666,666,666,666,666,667,666,666,666,666,666,667,667,667,667,667,667,667,667,667,667,667,667,667,667,667,667,667,667,667,667,667,667,667,667,667,667,667,667,667,667,667,667,667,667,667,667,667,667,667,667,667,667,667,667,667,667,667,667,667,667,667,667,667,667,667,667,667,667,667,667,667,667,667,667,667,667,667,667,667,668,668,668,668,668,668,667,667,667,667,667,667,667,667,667,667,667,667,667,667,667,667,667,666,666,667,667,667,667,667,667,667,668,667,667,667,667,667,667,666,666,666,666,666,666,666,666,667,666,666,666,667,666,666,666,666,666,666,666,665,666,666,666,666,666,666,665,665,665,666,666,666,666,667,667,667,667,666,666,666,666,665,666,666,666,666,666,666,666,666,666,666,667,668,2047,2047,2047,2047,2047,2047,2047,2047,2047,2047,2047,2047,2047,2047,2047,2047,2047,2047,2047,2047,2047,2047,2047,2047,2047,2047,2047,2047,2047,461,460,458,457,456,456,455,454,453,453,453,453,452,452,452,452,451,451,450,450,450,449,449,449,449,449,449,449,449,448,448,448,448,448,448,448,449,450,450,450,451,451,451,452,452,452,454,455,456,457,458,459,459,461,462,462,465,468,468,468,469,469,664,664,664,664,665,665,665,665,665,665,665,665,665,665,665,665,665,665,665,665,665,665,665,665,665,666,666,666,666,666,666,666,666,666,666,666,666,666,666,666,666,666,667,666,667,667,667,668,668,667,667,668,667,667,667,667,667,667,667,667,668,668,669,669,669,669,669,669,669,669,669,669,669,669,669,669,670,670,670,671,671,671,671,671,671,671,671,671,670,670,671,671,671,671,671,671,671,671,671,671,671,671,671,671,671,672,672,672,672,672,672,672,672,672,672,672,672,672,672,672,672,672,672,671,671,671,671,671,672,672,672,672,672,673,673,673,673,673,673,673,673,673,673,673,673,673,673,673,673,672,673,673,672,672,673,673,673,673,673,673,674,674,674,673,673,673,673,673,673,672,672,672,673,673,673,673,673,673,673,673,673,673,673,673,673,672,672,672,671,671,670,669,667,665,664,663,662,661,660,659,658,658,658,658,658,658,658,658,658,658,658,659,659,659,659,659,659,659,659,659,658,658,658,658,658,658,658,658,658,658,658,658,658,658,658,658,658,658,657,657,656,656,656,656,657,657,657,657,658,657,657,659,658,657,657,657,657,657,657,2047,2047,2047,2047,2047,2047,2047,2047
2047,2047,2047,2047,2047,2047,2047,2047,2047,2047,2047,2047,2047,2047,2047,2047,2047,2047,2047,2047,2047,2047,2047,2047,2047,661,661,660,661,660,660,660,660,660,660,660,659,659,659,659,659,659,660,660,660,660,660,660,661,661,661,661,661,661,662,662,663,663,663,663,663,663,663,663,663,663,663,663,663,663,664,664,664,664,664,664,664,664,664,664,664,664,664,664,664,665,664,665,665,665,665,665,665,665,666,665,666,666,666,666,666,666,665,665,665,664,664,665,665,666,666,666,667,667,667,666,666,667,666,667,667,667,667,667,667,667,667,667,667,667,667,667,667,667,667,667,667,667,667,667,667,667,667,667,667,667,667,667,667,667,667,667,667,667,667,667,667,667,667,667,667,667,667,667,667,667,667,667,667,667,667,667,667,667,667,667,667,667,667,667,667,667,667,667,667,667,667,667,668,668,668,668,668,668,668,667,667,667,668,667,667,667,667,667,667,667,667,667,667,667,667,667,667,667,667,667,667,667,668,668,668,667,667,667,667,667,666,666,666,666,666,666,666,666,666,666,666,666,666,667,666,666,666,666,666,666,666,665,666,666,666,666,666,665,665,665,665,666,666,666,666,667,666,667,666,666,666,666,666,665,666,666,666,666,666,666,666,666,666,667,668,2047,2047,2047,2047,2047,2047,2047,2047,2047,2047,2047,2047,2047,2047,2047,2047,2047,2047,2047,2047,2047,2047,2047,2047,2047,2047,2047,2047,2047,2047,461,460,458,457,457,456,456,455,453,453,453,452,453,452,453,452,451,451,451,450,450,449,449,449,449,449,449,449,449,448,448,448,448,448,448,448,449,450,450,450,451,451,451,452,452,453,455,456,457,458,458,459,460,461,462,464,466,468,469,469,470,470,665,665,666,665,665,665,665,665,665,665,665,665,665,665,665,665,665,665,665,665,665,665,665,665,666,666,666,666,666,666,666,666,666,666,666,666,666,666,666,666,666,667,667,667,667,667,668,668,668,668,668,668,668,667,667,667,667,668,668,668,668,669,669,669,669,669,669,669,669,669,668,668,669,669,669,669,670,670,670,671,671,671,671,671,671,671,671,671,670,670,671,671,671,671,671,671,671,671,671,671,672,671,671,672,672,672,673,673,673,673,673,672,672,672,672,672,672,672,672,672,672,672,672,671,671,671,671,671,671,672,672,672,672,673,673,673,673,673,673,673,673,673,673,673,673,673,673,673,673,673,673,673,673,672,673,673,673,673,673,673,673,674,673,673,673,673,673,673,673,672,673,673,673,673,673,673,673,673,674,674,673,673,673,673,673,673,672,672,671,671,670,669,667,666,664,663,662,661,660,659,658,658,658,658,658,658,658,658,658,658,658,659,659,659,659,659,658,659,659,659,659,658,658,658,658,658,658,658,658,658,658,658,658,658,658,658,658,658,657,657,656,656,657,656,657,657,657,657,658,657,657,658,658,658,658,657,657,657,657,2047,2047,2047,2047,2047,2047,2047,2047
2047,2047,2047,2047,2047,2047,2047,2047,2047,2047,2047,2047,2047,2047,2047,2047,2047,2047,2047,2047,2047,2047,2047,2047,660,660,660,660,660,660,660,660,660,660,660,660,659,659,659,659,659,659,659,660,660,660,660,661,661,661,661,661,661,661,661,661,663,663,663,663,663,663,663,663,663,663,663,663,663,663,664,664,664,664,664,664,664,664,664,664,664,664,664,664,664,664,664,665,665,665,665,665,665,665,666,665,666,665,666,666,666,666,665,665,665,665,664,665,666,666,666,666,667,667,666,666,666,667,666,667,667,667,667,667,667,667,667,667,667,667,666,667,667,667,667,667,667,667,667,668,667,667,668,667,667,667,667,667,667,668,667,667,667,667,667,667,667,667,667,667,667,667,667,667,667,667,667,667,667,667,667,667,667,667,667,667,667,667,667,667,667,667,667,667,667,667,667,667,668,668,668,668,668,668,668,668,668,668,668,668,668,668,667,667,667,667,667,667,667,667,667,667,667,667,667,667,667,667,668,668,668,667,667,667,667,667,667,666,666,666,666,666,666,667,666,667,667,666,667,667,667,666,666,666,666,666,666,665,666,666,665,666,665,665,665,665,665,665,666,666,666,667,666,667,666,666,666,666,666,665,666,666,666,666,666,666,666,666,666,666,2047,2047,2047,2047,2047,2047,2047,2047,2047,2047,2047,2047,2047,2047,2047,2047,2047,2047,2047,2047,2047,2047,2047,2047,2047,2047,2047,2047,2047,2047,463,461,460,458,457,457,456,456,454,453,453,453,453,453,453,453,452,452,452,451,451,450,449,449,449,449,449,449,449,449,448,448,448,448,448,448,448,449,449,450,450,451,451,452,452,453,453,455,456,457,458,459,460,461,462,463,464,465,467,468,468,469,469,665,665,666,665,665,665,665,665,665,665,665,665,665,665,665,665,665,665,665,665,665,665,665,665,666,666,666,666,666,666,666,666,666,666,666,666,666,666,666,666,666,667,667,667,667,668,668,668,669,668,668,668,668,668,668,667,667,668,668,669,669,669,669,669,669,669,669,669,669,668,668,668,669,669,669,669,670,670,670,671,671,671,671,671,671,671,671,671,671,671,671,671,671,671,671,671,671,671,671,671,672,671,671,672,672,672,672,672,672,672,672,672,672,672,672,672,672,672,672,672,671,672,671,671,672,671,671,672,672,672,672,672,672,673,673,673,673,673,673,673,673,673,673,673,673,673,673,673,673,673,673,673,673,673,673,673,673,673,673,673,673,673,673,673,673,673,673,673,673,673,673,673,673,673,673,673,673,673,674,674,673,673,673,673,673,673,673,672,672,671,671,669,668,666,664,664,662,661,660,659,659,658,658,658,658,658,658,658,658,658,658,659,659,659,659,659,659,659,659,659,659,658,658,658,658,658,658,658,658,658,658,658,658,658,658,658,658,658,657,657,657,657,657,657,657,657,657,657,657,657,657,658,657,657,657,657,657,657,657,2047,2047,2047,2047,2047,2047,2047,2047
2047,2047,2047,2047,2047,2047,2047,2047,2047,2047,2047,2047,2047,2047,2047,2047,2047,2047,2047,2047,2047,2047,2047,2047,661,661,660,660,660,660,660,660,660,660,660,660,659,659,659,659,659,659,660,660,660,660,660,661,661,661,660,660,661,661,661,661,663,663,663,663,663,663,663,663,663,663,663,663,663,663,664,664,664,664,664,664,664,664,664,664,664,664,664,664,665,664,664,665,665,665,665,665,665,665,666,665,666,666,666,666,666,666,666,666,665,666,665,666,666,666,666,666,667,667,667,666,666,667,667,667,667,667,667,667,667,667,667,667,667,667,667,667,667,667,667,667,667,667,668,668,668,668,668,667,668,668,667,667,667,668,667,667,667,667,667,667,667,667,667,667,667,667,667,667,667,667,667,667,667,667,667,667,667,667,667,667,667,667,667,667,667,667,667,667,667,667,667,667,668,668,668,668,668,668,668,668,668,668,668,668,668,668,668,668,668,668,668,668,667,667,667,667,667,667,667,667,667,667,668,668,668,667,668,667,667,667,667,666,666,666,666,666,666,666,666,667,667,667,667,667,667,667,667,666,666,666,666,666,666,666,666,666,666,665,665,665,665,665,666,666,666,666,666,667,666,666,666,666,666,666,666,666,666,666,666,666,666,666,666,2047,2047,2047,2047,2047,2047,2047,2047,2047,2047,2047,2047,2047,2047,2047,2047,2047,2047,2047,2047,2047,2047,2047,2047,2047,2047,2047,2047,2047,2047,2047,462,461,460,458,457,457,456,456,454,453,453,453,453,453,453,453,452,452,452,451,451,450,449,449,449,449,449,449,449,449,448,448,448,448,448,448,448,449,450,450,451,451,451,452,453,453,453,456,456,457,458,459,460,460,461,462,465,465,466,467,467,468,466,466,665,665,665,665,665,665,665,665,665,665,665,665,665,665,665,665,665,665,665,665,665,665,665,666,666,666,666,666,666,666,666,666,666,666,666,667,666,667,666,666,667,667,667,667,668,668,668,669,668,668,668,668,668,668,667,668,668,668,669,669,669,669,669,669,669,669,669,669,669,669,669,669,669,669,669,670,670,670,671,671,671,671,671,671,671,671,671,671,671,671,671,671,671,671,671,671,671,671,671,671,671,671,672,672,672,672,672,672,672,672,672,672,672,672,672,672,672,672,672,672,672,672,671,672,671,671,672,672,672,672,672,672,673,673,673,673,673,673,673,673,673,673,673,673,673,673,673,673,673,673,673,673,673,673,673,673,673,673,673,673,673,673,673,673,673,673,673,673,673,673,673,673,673,673,673,674,674,674,674,674,673,673,673,673,673,673,672,672,672,671,670,668,666,664,663,662,661,660,659,659,658,658,658,658,658,658,659,659,658,658,659,659,659,659,659,659,659,659,659,659,658,658,659,659,659,658,658,659,659,659,658,658,658,658,658,658,658,657,657,657,657,657,657,657,657,657,658,658,657,657,658,657,657,657,657,657,657,657,2047,2047,2047,2047,2047,2047,2047,2047
2047,2047,2047,2047,2047,2047,2047,2047,2047,2047,2047,2047,2047,2047,2047,2047,2047,2047,2047,2047,2047,2047,2047,661,661,661,660,660,660,660,660,660,660,660,660,660,659,659,659,659,660,660,660,660,660,661,661,661,661,661,660,660,661,661,661,661,662,663,663,663,663,663,663,663,663,663,663,663,663,663,664,664,664,664,664,664,664,664,664,664,664,664,664,664,665,664,664,665,665,665,666,665,665,666,666,666,666,666,666,666,666,666,666,666,666,666,666,666,667,666,667,667,667,667,667,667,666,667,667,667,667,667,667,667,667,667,667,667,667,667,667,667,667,667,667,667,668,668,668,668,668,668,668,667,667,667,667,667,667,667,667,667,667,667,667,667,667,667,667,667,667,667,667,667,667,667,667,667,667,667,667,667,667,667,667,667,667,667,667,667,667,667,667,667,667,667,667,667,668,668,668,668,668,668,668,668,668,668,668,668,668,668,668,668,668,667,667,668,667,667,667,667,667,668,667,667,667,667,668,668,668,667,668,667,667,667,667,667,666,666,666,666,666,666,666,666,666,667,667,668,667,667,667,667,667,666,666,666,666,666,665,666,665,665,665,665,665,665,666,666,666,666,666,667,666,666,666,665,665,665,666,666,666,666,665,665,666,666,666,2047,2047,2047,2047,2047,2047,2047,2047,2047,2047,2047,2047,2047,2047,2047,2047,2047,2047,2047,2047,2047,2047,2047,2047,2047,2047,2047,468,468,467,465,462,461,460,459,457,457,456,456,455,453,453,453,453,453,453,452,452,452,452,452,451,450,449,449,449,449,449,449,449,449,449,448,448,447,447,447,448,448,450,451,451,451,451,451,452,452,452,457,457,458,458,459,460,461,461,462,464,465,466,467,467,467,467,665,665,665,665,665,666,665,665,665,665,665,665,665,665,665,665,665,665,665,665,665,666,666,666,666,666,666,666,666,666,666,666,666,666,666,667,667,667,667,667,666,667,667,667,667,667,668,668,668,668,668,668,668,668,668,668,668,669,668,669,669,669,669,669,669,669,669,668,668,668,668,668,669,669,669,670,670,670,670,671,671,671,671,671,671,671,671,671,671,671,671,671,671,671,671,671,671,671,671,671,672,671,671,672,672,672,672,673,673,673,673,672,673,672,672,673,672,672,672,672,672,672,672,672,672,672,672,672,672,672,673,673,673,673,673,673,673,673,673,673,673,673,673,673,673,673,673,673,673,673,673,673,673,673,673,673,673,673,673,673,673,673,673,673,673,673,673,673,673,673,673,673,673,673,673,673,674,674,674,674,673,673,673,673,673,673,672,672,672,672,671,670,669,667,664,664,662,661,660,659,659,659,659,659,658,658,659,659,659,658,659,660,660,660,659,659,659,659,659,659,659,659,659,659,659,659,659,659,659,659,659,658,658,658,658,658,658,657,657,657,657,657,657,657,657,657,658,658,657,657,657,658,657,657,657,657,657,657,656,2047,2047,2047,2047,2047,2047,2047,2047
2047,2047,2047,2047,2047,2047,2047,2047,2047,2047,2047,2047,2047,2047,2047,2047,2047,2047,2047,2047,2047,2047,662,661,661,661,660,660,660,661,660,660,660,660,660,660,660,660,660,660,660,660,660,661,661,661,661,661,661,661,660,660,661,661,661,661,663,663,663,663,663,663,663,663,663,663,663,663,663,663,663,664,664,664,664,664,664,664,665,664,664,664,664,664,665,665,665,665,665,666,666,666,666,666,666,666,666,666,666,666,666,666,666,667,666,667,667,667,667,667,667,667,667,667,667,667,666,667,667,667,667,667,667,667,667,667,667,667,667,667,667,667,667,667,667,667,668,668,668,668,668,668,668,668,668,667,667,667,667,667,667,667,667,667,667,667,668,667,668,667,668,667,667,667,667,667,667,667,667,667,667,667,667,667,667,667,667,667,667,667,667,667,667,667,667,667,667,667,668,668,668,668,668,668,668,668,668,668,668,668,668,668,668,668,668,668,668,668,668,667,667,667,667,668,668,667,667,667,668,668,667,667,667,667,667,667,667,667,666,666,666,666,666,666,666,667,667,667,667,668,668,667,667,667,667,667,666,666,666,666,665,665,665,665,665,665,665,665,665,665,666,666,666,666,666,666,666,665,665,665,666,666,666,666,665,666,665,665,665,665,2047,2047,2047,2047,2047,2047,2047,2047,2047,2047,2047,2047,2047,2047,2047,2047,2047,2047,2047,2047,2047,2047,2047,2047,2047,2047,468,468,467,465,462,461,460,459,459,457,456,456,454,453,453,453,453,453,453,452,452,452,452,451,450,450,449,449,449,449,449,449,449,448,448,448,447,447,447,447,448,448,450,450,451,451,452,452,453,453,453,457,457,458,458,459,460,461,462,463,464,465,466,467,467,468,468,666,666,666,666,666,666,665,665,665,665,665,665,665,665,665,665,665,666,665,666,666,666,666,666,666,666,666,666,666,666,666,667,667,667,667,667,667,667,667,667,666,667,667,667,667,668,668,669,669,668,668,669,668,668,668,668,668,669,668,669,669,669,669,669,669,669,669,668,668,668,668,669,669,669,670,670,670,670,670,671,671,671,671,671,671,671,671,671,671,671,670,671,670,671,671,671,671,671,671,671,672,671,671,672,672,672,672,673,672,673,673,672,673,672,672,672,672,672,672,672,672,672,672,672,672,672,672,672,673,673,673,673,673,673,673,673,673,673,673,673,673,673,673,673,673,673,673,673,673,673,673,673,673,673,673,674,673,673,673,673,673,673,673,673,673,673,673,673,673,673,673,673,674,674,674,674,674,674,674,674,673,673,673,673,673,673,672,672,672,672,671,671,670,668,666,664,663,661,660,659,660,659,659,659,659,659,659,659,659,659,659,660,660,660,660,660,659,660,659,659,659,659,659,659,659,659,659,659,659,659,659,658,659,658,658,658,658,658,657,657,657,657,657,657,657,657,658,658,658,657,657,658,657,657,657,657,657,657,657,2047,2047,2047,2047,2047,2047,2047,2047
2047,2047,2047,2047,2047,2047,2047,2047,2047,2047,2047,2047,2047,2047,2047,2047,2047,2047,2047,2047,2047,2047,662,661,661,661,660,660,661,661,660,660,660,660,660,660,660,660,660,660,660,661,661,661,661,661,661,661,661,661,661,661,661,661,661,661,662,663,663,663,663,663,663,663,664,664,664,664,664,664,664,664,664,664,664,664,664,665,665,664,664,664,664,664,665,665,665,665,666,666,666,666,666,666,667,666,666,666,666,666,667,666,666,667,666,667,667,667,667,667,667,667,667,667,667,667,667,667,667,667,667,667,667,667,667,667,667,667,667,667,667,667,667,667,667,667,667,668,668,668,668,668,668,668,668,667,667,667,667,667,667,667,667,667,667,667,667,667,668,668,668,668,668,668,667,668,667,667,667,667,667,668,667,667,667,667,667,667,667,667,667,667,667,667,667,667,667,667,668,668,668,668,668,668,668,668,668,668,668,668,668,668,668,668,668,668,668,668,668,667,667,667,667,668,668,667,667,667,668,668,667,667,667,667,667,667,667,667,667,667,666,666,666,666,666,667,667,667,667,667,667,667,667,667,667,667,666,666,666,666,666,666,665,665,665,665,665,665,665,665,666,666,666,666,666,666,666,665,665,665,665,666,666,666,665,665,665,665,665,665,2047,2047,2047,2047,2047,2047,2047,2047,2047,2047,2047,2047,2047,2047,2047,2047,2047,2047,2047,2047,2047,2047,2047,2047,2047,2047,2047,469,468,464,462,461,460,459,458,458,456,455,454,453,454,454,454,454,453,453,452,452,452,452,450,450,449,449,449,449,449,449,448,448,448,448,447,447,447,447,448,448,450,450,451,451,452,452,453,453,453,458,458,458,458,459,460,461,462,463,464,465,466,467,468,469,469,666,666,666,666,666,666,666,666,665,665,666,666,666,665,665,665,665,666,666,666,666,666,666,666,666,666,666,666,666,666,666,667,667,667,667,667,667,667,667,667,667,667,667,668,668,668,668,669,669,669,669,669,669,669,668,668,668,669,669,669,669,669,669,669,669,669,668,668,668,668,669,669,669,669,670,670,670,670,670,671,671,671,671,671,671,671,671,671,671,671,671,671,671,671,671,671,671,671,672,671,672,672,672,672,673,672,672,673,673,673,673,673,673,673,673,673,672,672,672,672,672,672,672,672,672,672,673,673,673,673,673,673,673,673,673,673,673,674,674,674,673,673,673,673,673,673,673,673,673,673,673,673,673,673,673,674,674,673,673,674,673,673,673,673,673,673,673,673,673,673,674,674,674,674,674,674,674,674,674,674,673,673,673,673,673,673,672,672,672,672,671,671,670,669,667,666,663,661,660,659,660,659,659,659,659,659,660,660,659,659,660,661,661,660,660,660,660,660,659,659,659,659,659,659,659,659,659,659,659,659,659,658,659,659,659,659,659,658,658,658,657,657,657,657,658,658,658,659,658,657,657,658,658,657,658,657,658,658,657,2047,2047,2047,2047,2047,2047,2047,2047
2047,2047,2047,2047,2047,2047,2047,2047,2047,2047,2047,2047,2047,2047,2047,2047,2047,2047,2047,2047,662,662,662,661,661,661,660,660,660,661,660,660,660,660,660,660,660,660,660,660,661,661,661,661,661,661,661,661,662,661,661,661,661,661,661,661,662,663,663,663,663,663,663,663,663,663,664,664,664,663,664,664,664,664,664,664,664,664,664,664,664,665,664,665,665,665,665,665,665,666,665,665,665,666,666,666,666,666,666,667,667,667,666,667,667,667,667,667,667,667,667,667,667,667,667,667,667,667,667,667,667,667,667,667,667,667,667,667,667,667,667,667,667,667,667,668,667,668,668,668,668,668,668,667,668,667,667,667,667,667,667,667,667,667,667,667,667,667,668,668,668,668,668,668,668,668,667,667,667,667,667,668,668,667,667,667,667,667,667,667,667,667,667,667,667,667,667,667,668,668,668,668,668,668,668,668,668,668,668,668,668,668,668,668,668,668,668,668,668,667,667,667,667,668,668,668,667,668,668,668,667,667,667,667,667,667,667,667,667,667,666,666,666,666,666,666,667,667,667,667,667,667,667,667,667,667,667,667,667,666,666,666,665,665,665,665,665,665,665,665,666,666,665,666,665,666,666,665,665,665,665,665,665,665,665,665,665,665,665,665,2047,2047,2047,2047,2047,2047,2047,2047,2047,2047,2047,2047,2047,2047,2047,2047,2047,2047,2047,2047,2047,2047,2047,2047,2047,2047,2047,469,468,464,462,461,460,459,459,458,456,456,454,453,454,454,454,454,453,453,452,452,452,451,450,450,449,449,449,449,449,449,448,448,448,448,448,447,447,448,448,449,451,451,451,451,452,453,453,456,458,458,458,458,459,460,460,461,462,463,464,465,466,467,468,470,470,669,667,666,666,666,666,666,666,666,666,666,666,666,666,665,665,665,666,666,666,666,666,667,667,667,667,666,666,666,666,667,667,667,667,667,667,667,667,667,667,667,667,668,668,668,669,669,669,669,669,669,669,669,669,669,668,669,669,669,669,669,669,669,669,669,669,668,668,669,669,669,669,669,669,670,670,670,670,670,671,671,671,671,671,671,671,671,671,671,671,671,671,671,671,671,671,671,671,672,671,672,672,672,672,672,672,672,673,673,673,673,673,673,673,673,673,673,672,672,672,672,672,672,672,672,673,673,672,673,673,673,673,673,673,673,674,674,674,674,674,673,673,673,673,673,673,673,673,673,673,673,673,673,673,673,674,674,673,673,674,673,673,673,673,673,673,673,674,674,673,674,674,674,674,674,674,674,674,674,674,673,673,673,673,673,673,672,672,673,672,672,672,671,671,671,669,669,662,660,660,660,659,660,660,665,666,666,662,660,661,662,663,661,661,660,660,660,660,659,659,659,659,659,659,659,659,659,659,659,659,659,659,659,659,659,659,659,658,658,659,659,658,658,658,659,659,659,659,659,658,658,659,658,658,658,658,657,658,657,2047,2047,2047,2047,2047,2047,2047,2047
2047,2047,2047,2047,2047,2047,2047,2047,2047,2047,2047,2047,2047,2047,2047,2047,2047,2047,2047,662,662,662,662,662,661,661,661,661,661,661,660,660,660,660,660,660,660,660,660,660,661,661,661,661,661,661,661,662,662,661,661,662,662,662,662,661,662,663,662,663,663,663,663,663,663,663,664,664,664,664,664,664,664,664,664,664,664,664,665,664,665,665,664,665,665,665,665,665,665,665,666,666,666,666,666,666,666,666,667,667,667,667,667,667,667,667,667,667,667,667,667,667,667,667,667,666,667,667,667,667,667,667,667,667,667,667,667,667,667,667,667,667,667,667,667,668,667,668,668,668,668,668,668,667,668,667,667,667,667,667,667,667,667,667,667,667,667,667,667,667,668,668,668,668,668,668,667,667,667,667,667,667,667,667,667,667,667,667,667,667,667,667,667,667,667,667,667,667,668,668,668,668,668,668,668,668,668,668,668,668,668,668,668,668,668,668,668,668,668,667,667,667,668,668,668,668,668,668,668,668,667,667,667,667,667,667,667,667,667,666,666,666,666,666,667,666,666,667,667,667,667,667,667,668,668,667,667,667,667,667,666,666,665,666,666,665,665,665,665,665,666,666,666,666,665,666,665,665,665,665,665,665,666,665,665,665,665,665,665,665,2047,2047,2047,2047,2047,2047,2047,2047,2047,2047,2047,2047,2047,2047,2047,2047,2047,2047,2047,2047,2047,2047,2047,2047,2047,2047,2047,2047,2047,464,462,461,460,459,459,459,458,456,454,453,454,454,454,454,453,452,452,453,453,451,450,450,450,450,450,449,449,449,448,448,448,448,448,448,448,448,449,449,451,451,452,452,452,453,454,454,457,457,458,459,458,459,460,461,461,463,465,466,467,468,469,469,469,668,666,666,666,666,666,666,666,666,666,666,666,666,666,666,665,666,666,666,666,667,667,667,667,667,667,666,666,666,666,666,667,667,667,667,667,667,667,667,667,667,668,668,668,668,668,668,669,669,669,669,669,669,669,669,669,669,669,669,669,669,669,669,669,669,669,669,669,669,669,669,669,669,670,670,670,670,670,670,671,671,671,671,671,671,671,671,671,671,671,671,671,671,671,671,671,671,671,671,671,672,672,672,672,672,672,672,673,673,673,673,673,674,673,673,673,673,673,673,672,672,672,672,672,672,672,672,672,673,673,673,673,673,673,673,674,674,674,674,674,674,674,673,673,673,673,673,673,673,673,673,673,673,673,673,673,674,673,673,674,674,674,673,673,673,674,673,673,674,674,674,674,674,674,674,674,674,674,674,674,673,673,673,673,673,673,672,673,673,673,672,672,672,672,673,672,671,671,671,670,669,666,666,666,666,666,666,665,666,665,665,666,664,663,661,662,660,660,660,660,660,660,660,660,660,660,660,660,660,660,660,660,660,660,660,660,660,659,659,660,660,660,660,659,659,660,660,660,659,659,659,659,659,659,659,658,658,658,658,2047,2047,2047,2047,2047,2047,2047,2047
2047,2047,2047,2047,2047,2047,2047,2047,2047,2047,2047,2047,2047,2047,2047,2047,2047,2047,662,662,661,661,662,661,661,661,661,661,661,661,660,661,660,660,661,661,661,661,661,661,661,661,662,662,662,662,662,662,662,662,662,662,662,662,662,662,662,663,663,663,663,663,663,664,664,664,664,664,664,664,664,664,664,664,664,664,664,664,664,664,664,665,664,665,665,665,665,665,665,665,666,666,666,666,667,667,666,666,667,667,667,667,667,667,667,667,667,667,667,667,667,667,667,666,667,666,667,667,667,667,667,667,667,667,667,667,667,667,667,667,667,668,668,668,668,668,668,668,668,668,667,668,668,667,668,667,667,667,667,667,667,667,667,667,667,667,667,667,667,667,667,667,668,667,667,667,667,667,667,667,667,667,667,667,667,667,667,667,667,667,667,667,667,667,667,667,667,667,668,668,668,668,668,668,668,668,668,668,668,668,668,668,668,668,668,668,668,668,668,668,667,667,668,668,668,668,668,668,668,668,667,667,667,667,667,667,667,667,667,666,667,666,666,667,667,667,666,667,667,667,667,667,668,668,668,668,667,667,667,667,667,666,666,666,666,666,666,665,665,666,666,666,665,666,665,665,665,665,665,665,665,665,665,665,665,665,665,665,665,665,665,2047,2047,2047,2047,2047,2047,2047,2047,2047,2047,2047,2047,2047,2047,2047,2047,2047,2047,2047,2047,2047,2047,2047,2047,2047,2047,2047,466,464,463,461,460,460,460,459,458,457,455,454,454,455,455,454,453,453,452,452,452,451,450,450,449,449,450,449,449,449,449,448,448,449,448,448,448,448,449,449,451,451,451,451,452,453,453,453,454,457,458,458,458,459,460,461,461,462,465,466,467,468,468,470,470,667,666,666,666,666,666,666,666,666,666,666,666,666,666,666,665,666,666,666,666,667,667,666,666,666,666,666,666,667,666,666,667,667,667,667,667,667,666,667,667,667,667,668,668,668,669,668,669,669,668,669,669,669,669,669,669,669,669,669,669,669,669,669,669,669,669,669,669,669,669,669,669,670,670,670,670,670,670,670,671,671,671,671,671,671,671,671,671,671,671,671,671,671,671,671,671,671,671,671,671,672,672,672,672,672,672,672,672,672,673,673,673,673,673,673,673,673,673,672,672,672,672,672,672,672,673,673,673,673,673,674,674,674,673,674,674,674,674,674,674,674,674,673,673,673,673,673,673,673,673,673,673,673,673,673,673,674,673,674,674,674,674,674,674,674,674,674,674,674,674,674,674,674,674,674,674,674,674,674,674,673,673,673,673,673,673,672,673,673,673,673,673,673,673,673,673,673,672,671,670,669,668,667,668,667,667,667,667,667,667,666,667,667,666,666,666,664,661,661,661,661,660,661,661,661,661,660,660,660,661,660,660,660,660,660,661,661,660,660,661,661,661,661,660,660,660,661,660,660,660,660,660,660,659,659,659,659,659,658,2047,2047,2047,2047,2047,2047,2047,2047
