246,246,246,246,246,246,247,247,246,246,246,246,246,246,246,246,247,247,247,247,247,247,255,255,255,255,255,255,255,255,255,255,255,255,255,255,255,255,255,255,255,255,255,255,255,255,255,255,255,255,255,255,255,255,255,255,255,255,255,255,255,255,255,255,255,255,241,242,242,242,242,242,242,242,242,242,242,242,242,242,242,242,242,241,241,241,240,240,240,240,240,240,239,239,239,239,239,239,239,239,239,239,239,239,239,239,239,239,239,238,238,238,238,238,238,238,238,238,238,238,237,237,237,237,237,237,237,237,237,237,237,237,237,237,237,237,237,237,236,237,236,236,236,236,236,236,236,236,236,236,236,236,236,236,236,235,236,235,235,235,235,235,235,235,235,235,235,255,239,239,239,239,239,239,238,239,239,239,239,239,239,239,238,238,238,238,238,238,238,238,238,238,238,238,238,238,238,238,238,238,238,238,238,238,238,238,238,238,238,238,238,238,238,238,238,238,238,238,238,238,238,238,238,238,238,238,255,255,255,255,255,255,255,255,230,230,230,230,230,230,230,230,230,230,230,230,231,231,231,231,231,239,239,239,239,238,238,238,239,238,238,238,238,239,238,238,239,238,238,239,238,238,239,239,239,239,239,239,239,239,239,239,239,239,239,239,239,239,255,235,235,235,235,236,236,236,236,236,236,236,236,236,236,236,236,236,236,237,237,237,237,237,237,237,237,237,237,237,238,238,238,238,238,238,238,238,238,238,238,239,239,239,239,239,239,239,239,240,240,240,240,240,240,239,239,239,239,239,239,239,239,239,239,239,239,239,239,239,239,239,239,239,239,239,239,239,239,238,238,238,238,238,238,238,239,239,239,239,239,239,239,239,238,238,238,238,255,255,255,255,255,255,255,255,255,255,255,255,255,255,255,255,255,255,255,255,255,255,255,255,255,255,255,255,255,255,255,255,255,255,255,255,255,255,161,161,161,161,161,161,161,158,158,158,158,157,157,157,157,156,156,156,156,156,156,155,155,155,154,154,154,154,154,154,153,153,152,152,152,151,151,151,151,150,150,150,150,150,149,149,149,149,149,149,149,149,149,149,149,149,149,148,148,148,148,147,147,147,147,147,147,147,147,147,147,147,147,147,147,147,147,147,147,147,147,147,146,146,146,146,146,146,146,146,146,146,146,146,146,146,147,147,147,146,147,147,146,146,146,146,146,146,146,146,146,146,146,146,145,145,145,145,145,145,255,255,255,255,142,142,142,142,142,142,142,142,142,143,143,143,143,143,143,147,147,147,147,147,147,147,147,147,147,147,147,147,147,147,147,148,148,148,148,148,148,150,150,150,150,150,150,151,152,152,152,152,152,152,152,153,153,215,215,215,215,215,215,215,214,214,214,214,214,214,214,214,214,214,214,214,214,214,214,214,214,214,214,214,214,213,213,213,255,255,255,255,255,255,255,255
246,246,246,246,246,246,247,247,246,246,246,246,246,246,246,246,247,247,247,247,247,247,255,255,255,255,255,255,255,255,255,255,255,255,255,255,255,255,255,255,255,255,255,255,255,255,255,255,255,255,255,255,255,255,255,255,255,255,255,255,255,255,255,255,255,242,242,242,242,242,242,242,242,242,242,242,242,242,242,242,242,242,241,241,241,240,240,240,240,240,240,239,239,239,239,239,239,239,239,239,239,239,239,239,239,238,239,238,238,238,238,238,238,238,238,238,238,238,238,238,237,237,237,237,237,237,237,237,237,237,237,237,237,237,237,237,237,237,237,236,236,236,236,236,236,236,236,236,236,236,236,236,236,236,236,236,238,238,239,235,235,235,235,235,235,239,255,255,239,239,239,239,239,239,239,239,239,239,239,239,239,239,239,238,239,239,238,238,238,238,238,238,238,238,238,238,238,238,239,239,238,238,238,238,238,238,238,238,238,238,238,238,238,238,238,238,238,238,238,238,238,238,238,238,238,238,255,255,255,255,255,255,255,255,230,230,230,230,230,230,230,230,230,230,230,230,231,231,231,239,239,239,239,239,239,239,239,239,239,239,239,239,239,239,239,239,239,239,239,239,239,239,239,239,239,239,239,239,239,239,239,239,239,239,239,239,239,239,239,239,239,236,236,236,236,236,236,236,236,236,236,236,236,236,236,236,236,236,237,237,237,237,237,237,237,237,237,237,238,238,238,238,238,238,238,238,238,238,238,238,239,239,239,239,239,239,239,240,240,240,240,240,240,239,239,239,239,239,239,239,239,239,239,239,239,239,239,239,239,239,239,239,239,239,239,239,238,238,238,238,238,238,238,238,239,239,239,239,239,239,239,239,238,238,238,238,255,255,255,255,255,255,255,255,255,255,255,255,255,255,255,255,255,255,255,255,255,255,255,255,255,255,255,255,255,255,255,255,255,255,255,255,255,255,255,161,161,161,161,161,161,158,158,158,158,158,157,157,157,157,157,156,156,156,156,155,155,155,154,154,154,154,154,154,154,153,153,152,152,151,151,151,151,150,150,150,150,150,150,149,149,149,149,149,149,150,149,150,149,149,149,149,148,148,148,148,148,148,147,147,147,147,147,148,148,148,148,148,148,148,148,147,147,255,147,147,146,146,146,146,146,146,146,146,146,146,146,146,147,146,147,146,146,146,146,146,146,146,146,146,146,146,146,146,146,146,146,145,145,145,145,145,145,145,255,255,255,255,255,142,142,142,142,142,142,142,142,142,143,143,143,143,143,147,147,147,147,147,147,147,147,147,147,147,147,147,147,147,147,147,148,148,148,148,148,149,150,150,150,150,150,150,151,152,152,152,152,152,152,153,153,215,215,215,215,215,215,215,214,214,214,214,214,214,214,214,214,214,214,214,214,214,214,214,214,214,214,214,214,213,213,213,255,255,255,255,255,255,255,255
246,246,246,246,246,246,247,246,247,246,246,246,246,246,246,247,247,247,247,247,247,247,255,255,255,255,255,255,255,255,255,255,255,255,255,255,255,255,255,255,255,255,255,255,255,255,255,255,255,255,255,255,255,255,255,255,255,255,255,255,255,255,255,255,255,242,242,242,242,242,242,242,242,242,242,241,241,241,242,242,242,241,241,241,240,240,240,239,240,240,239,239,239,239,239,239,239,239,239,239,239,239,239,238,239,238,238,238,238,238,238,238,238,238,238,238,238,238,238,238,238,237,237,237,237,237,237,237,237,237,237,237,237,237,237,237,237,236,236,236,236,236,236,236,236,236,236,236,236,236,236,236,236,236,237,255,238,238,239,239,239,239,239,239,239,239,239,239,239,239,239,239,239,239,239,239,239,239,239,239,239,239,239,239,239,239,239,238,238,238,238,238,238,238,238,238,238,239,239,239,239,238,238,238,238,238,238,238,238,238,239,238,238,238,238,238,238,238,238,238,238,238,238,238,238,239,255,255,255,255,255,255,255,231,230,230,230,230,230,230,230,230,230,230,230,230,230,240,240,239,239,239,239,239,239,239,239,239,239,239,239,239,239,239,239,239,239,239,239,239,239,239,239,239,239,239,239,239,239,239,239,239,239,239,239,239,239,239,239,239,239,239,236,236,236,236,236,236,236,236,236,236,236,236,236,236,236,236,237,237,237,237,237,237,237,237,237,237,238,238,238,238,238,238,238,238,238,238,238,239,239,239,239,239,239,240,240,240,240,240,240,240,240,239,239,239,239,239,239,239,239,239,239,239,239,239,239,239,239,239,239,239,239,239,239,239,239,238,238,238,238,238,238,238,238,239,239,239,239,239,239,238,238,238,238,238,255,255,255,255,255,255,255,255,255,255,255,255,255,255,255,255,255,255,255,255,255,255,255,255,255,255,255,255,255,255,255,255,255,255,255,255,255,255,162,162,162,162,161,161,164,158,158,158,158,158,157,157,157,157,157,157,156,156,156,155,155,155,154,154,154,154,154,154,154,153,153,153,152,151,151,151,151,151,150,150,150,150,150,150,149,149,149,149,150,150,150,150,149,149,149,149,148,148,148,148,148,148,147,148,148,148,148,148,148,148,149,149,148,148,148,148,255,255,255,147,147,147,147,146,146,146,146,146,147,146,146,147,147,147,147,147,146,146,147,147,146,146,146,146,146,146,146,142,142,146,145,146,145,146,145,146,145,145,255,255,255,255,255,255,142,142,142,142,142,142,142,142,142,143,143,143,143,147,147,147,147,147,147,147,147,147,147,147,147,147,147,147,147,147,148,148,148,148,148,149,149,149,149,150,150,150,150,151,152,152,152,152,152,152,153,215,215,215,215,215,215,215,214,214,214,214,214,214,214,214,214,214,214,214,214,214,214,214,214,214,214,214,214,213,213,213,255,255,255,255,255,255,255,255
246,246,246,246,246,246,246,246,246,246,246,246,246,246,247,247,247,247,247,247,247,247,247,255,255,255,255,255,255,255,255,255,255,255,255,255,255,255,255,255,255,255,255,255,255,255,255,255,255,255,255,255,255,255,255,255,255,255,255,255,255,255,255,255,255,242,242,242,242,242,242,242,241,241,241,241,241,241,241,241,241,241,241,240,240,240,239,239,240,239,239,239,239,239,239,239,239,239,239,239,239,239,238,238,238,238,238,238,238,238,238,238,238,238,238,238,238,238,238,238,238,238,237,237,237,237,237,237,237,237,237,237,237,237,236,236,237,237,237,237,237,236,236,236,236,236,236,236,236,236,237,237,237,237,237,238,238,238,239,239,239,239,239,239,239,239,239,239,239,239,239,239,239,239,239,239,239,239,239,239,239,239,239,239,239,239,239,239,238,238,238,238,238,238,238,238,239,239,239,239,239,239,239,238,238,238,238,238,238,238,239,239,239,238,238,238,238,238,238,238,238,238,239,239,239,240,255,255,255,255,255,255,230,230,230,230,230,230,230,230,230,230,230,230,230,231,231,240,240,240,239,239,239,239,239,239,239,239,239,239,239,239,239,239,239,239,239,239,239,239,239,239,239,239,239,239,239,239,239,239,239,239,239,239,239,239,239,239,239,240,240,239,236,236,236,236,236,236,236,236,236,236,236,236,236,236,236,236,237,237,237,237,237,237,237,237,237,237,238,238,238,238,238,238,238,238,238,238,238,239,239,239,239,239,239,240,240,240,240,240,240,240,240,239,239,239,239,239,239,239,239,239,239,239,239,239,239,239,239,239,239,239,239,239,239,239,239,238,238,238,238,238,238,238,238,238,238,239,239,238,239,239,238,238,238,238,255,255,255,255,255,255,255,255,255,255,255,255,255,255,255,255,255,255,255,255,255,255,255,255,255,255,255,255,255,255,255,255,255,255,255,255,255,255,162,162,162,162,162,164,164,158,158,158,158,158,158,157,157,157,157,157,156,156,155,155,155,155,154,154,154,154,154,154,154,153,153,153,152,152,151,151,151,151,150,150,150,150,150,150,150,150,150,150,150,150,150,150,149,149,149,149,149,148,148,148,148,148,148,148,148,148,148,148,148,148,149,149,148,148,148,148,255,255,255,255,255,255,147,255,146,146,146,147,147,147,147,147,147,147,147,147,255,255,255,255,255,255,255,255,255,255,142,142,142,142,142,145,145,145,146,146,145,255,255,255,255,255,255,255,255,142,142,142,142,142,142,142,142,142,142,143,143,143,147,147,147,147,147,147,147,147,147,147,147,147,147,147,147,147,148,148,148,148,148,148,149,149,149,150,150,150,150,150,151,152,152,152,152,152,153,153,215,215,215,215,215,215,215,214,214,214,214,214,214,214,214,214,214,214,214,214,214,214,214,214,214,214,214,214,213,213,255,255,255,255,255,255,255,255
246,246,246,246,246,246,246,246,247,246,246,246,247,247,247,247,247,247,247,247,247,247,247,255,255,255,255,255,255,255,255,255,255,255,255,255,255,255,255,255,255,255,255,255,255,242,242,242,255,255,255,255,255,255,255,255,255,255,255,255,255,255,255,255,255,242,242,242,242,242,241,241,241,241,240,240,241,241,241,241,240,240,240,240,239,239,239,239,239,239,239,239,239,239,239,239,239,239,239,239,239,239,238,238,238,238,238,238,238,238,238,238,238,238,238,238,238,238,238,238,238,238,237,237,237,237,237,237,237,237,237,237,237,237,237,237,237,237,237,237,237,237,237,236,236,236,237,237,237,237,237,237,237,237,238,238,238,238,238,239,239,239,239,239,239,239,239,239,239,239,239,239,239,239,239,239,239,239,239,239,239,239,239,239,239,239,239,255,255,255,255,255,238,238,238,255,239,239,239,239,239,239,255,238,255,255,238,238,255,239,239,239,239,239,239,197,197,197,197,197,197,197,239,239,255,255,255,255,255,255,255,231,230,230,230,230,230,230,230,230,230,230,230,231,231,231,231,240,240,240,240,240,239,239,239,239,239,239,239,239,239,239,239,239,239,239,239,239,239,239,239,239,239,239,239,239,239,239,239,239,239,239,239,239,239,239,239,239,239,240,239,239,240,235,235,236,236,236,236,236,236,236,236,236,236,236,236,237,237,237,237,237,237,237,237,237,237,237,238,238,238,238,238,238,238,238,238,238,238,239,239,239,239,239,239,239,240,240,240,240,240,240,240,240,240,239,239,239,239,239,239,239,239,239,239,239,239,239,239,239,239,239,239,239,239,239,239,238,238,238,238,238,238,238,238,238,238,238,238,238,239,239,238,238,238,238,255,255,255,255,255,255,255,255,255,255,255,255,255,255,255,255,255,255,255,255,255,255,255,255,255,255,255,255,255,255,255,255,255,255,255,255,255,255,162,162,162,162,162,164,164,158,158,158,158,158,158,157,157,157,157,157,156,156,155,155,155,155,155,154,154,154,154,154,154,154,153,153,152,152,151,151,151,151,151,150,150,150,150,150,150,150,150,150,150,150,149,150,149,149,149,149,149,148,148,148,148,148,148,148,148,149,149,149,149,149,149,149,148,148,148,255,255,255,255,255,255,255,255,255,255,147,147,255,147,147,147,147,147,147,147,147,255,255,255,255,255,255,255,255,255,255,143,142,142,142,144,145,145,145,145,145,255,255,255,255,255,255,255,255,255,142,142,142,142,142,142,142,142,142,142,142,143,143,143,143,147,147,147,147,147,147,147,147,147,147,147,147,147,147,147,147,148,148,148,148,148,148,149,149,150,150,150,150,150,151,152,152,152,152,153,153,215,215,215,215,215,214,214,214,214,214,214,214,214,214,214,214,214,214,214,214,214,214,214,214,214,214,214,214,214,213,255,255,255,255,255,255,255,255
246,246,246,246,246,246,246,246,247,246,247,247,247,247,247,247,247,247,247,247,247,247,247,255,255,255,255,255,255,255,255,255,255,255,255,255,255,255,255,255,255,255,255,255,242,242,242,242,255,255,255,255,255,255,255,255,241,241,241,241,241,241,241,241,255,241,241,241,241,241,241,241,241,241,240,240,240,240,240,240,240,240,239,255,255,239,239,239,255,239,239,239,239,239,239,239,239,239,239,239,239,239,238,238,238,238,238,238,238,238,238,238,238,238,238,238,238,238,238,238,238,238,237,237,237,237,237,237,237,237,237,237,237,237,237,237,237,237,237,237,237,237,237,237,237,237,237,237,237,237,237,238,238,238,238,238,238,238,238,239,239,239,239,239,239,239,239,239,255,255,239,239,239,255,255,255,239,239,239,239,239,239,255,255,255,255,255,255,255,255,255,255,255,255,255,255,255,255,239,255,255,255,255,255,255,255,255,255,255,255,196,197,197,239,197,197,197,197,197,197,197,197,197,255,255,255,255,255,255,255,255,230,230,230,230,230,230,230,230,230,230,230,230,231,231,231,231,240,240,240,240,240,239,239,239,239,239,239,239,239,240,240,239,239,239,239,239,239,239,239,239,239,240,239,240,239,240,240,239,239,239,239,239,239,239,239,240,240,240,240,240,240,240,240,240,240,236,236,236,236,236,236,236,236,236,237,237,237,237,237,237,237,237,237,237,237,237,238,238,238,238,238,238,238,238,238,238,238,238,239,239,239,239,239,239,240,240,240,240,240,240,240,240,240,240,239,239,239,239,239,239,239,239,239,239,239,239,239,239,239,239,239,239,239,239,239,239,238,238,238,238,238,238,238,239,239,239,239,238,238,239,238,238,238,238,238,255,255,255,255,255,255,255,255,255,255,255,255,255,255,255,255,255,255,255,255,255,255,255,255,255,255,255,255,255,255,255,255,255,255,255,255,255,255,162,162,162,162,162,164,164,165,159,159,158,158,158,158,157,157,157,157,157,156,156,155,155,155,155,154,154,154,154,154,154,154,153,153,152,152,151,151,151,151,151,150,150,150,150,150,150,150,150,150,150,150,150,150,149,149,149,149,149,149,148,148,148,149,149,149,149,149,149,149,149,149,149,149,148,148,148,255,255,255,255,255,255,255,255,255,255,255,255,255,147,147,147,147,147,147,147,255,255,255,255,255,255,255,255,255,255,255,143,143,143,144,144,144,144,147,147,255,255,255,255,255,255,255,255,255,255,255,142,142,142,142,142,142,142,142,142,142,142,143,143,143,147,147,147,147,147,147,147,147,147,147,147,147,147,147,147,147,148,148,148,148,148,148,148,149,149,150,150,150,150,151,152,152,152,152,152,152,152,152,215,215,214,215,214,214,214,214,214,214,214,214,214,214,214,214,214,214,214,214,214,214,214,214,214,214,214,213,255,255,255,255,255,255,255,255
246,246,246,246,246,246,246,246,247,247,247,247,247,247,247,247,247,247,247,247,247,247,247,247,255,255,255,255,255,255,255,255,255,255,255,255,255,255,255,255,255,255,255,242,242,242,242,242,242,242,242,255,255,255,255,241,241,241,241,241,241,241,241,241,241,241,241,241,241,241,240,241,240,240,240,240,240,240,240,240,239,239,239,255,255,255,255,255,255,255,239,239,239,239,239,239,239,239,239,239,239,239,238,238,238,238,238,238,238,238,238,238,238,238,238,238,238,238,238,238,238,237,237,237,237,237,237,237,237,237,237,237,237,236,236,237,237,237,237,237,237,237,237,237,237,237,237,237,237,237,238,238,238,238,238,238,238,238,239,239,239,239,239,239,239,239,239,255,255,255,255,255,255,255,255,255,255,255,255,255,255,255,255,255,255,255,255,255,255,255,255,255,255,255,255,255,255,255,255,255,255,255,255,255,255,255,255,255,255,255,196,196,196,196,196,197,197,197,197,197,197,197,197,197,255,255,255,255,255,255,255,231,230,230,230,230,230,230,230,230,230,230,230,231,230,230,230,240,240,240,240,240,240,240,240,240,240,240,239,240,240,240,240,240,240,240,240,239,240,240,240,240,240,240,240,240,240,240,240,239,239,239,239,240,240,240,240,240,240,240,240,240,240,240,240,240,240,236,236,236,240,236,240,240,241,241,241,241,237,237,237,237,237,237,237,237,237,238,238,238,238,238,238,238,238,238,238,238,238,239,239,239,239,239,239,240,240,240,240,240,240,240,240,240,240,239,239,239,239,239,239,239,239,239,239,239,239,239,239,239,239,239,239,239,239,239,239,238,238,238,238,238,238,239,239,239,238,238,238,238,238,238,238,239,238,238,255,255,255,255,255,255,255,255,255,255,255,255,255,255,255,255,255,255,255,255,255,255,255,255,255,255,255,255,255,255,255,255,255,255,255,255,255,163,163,163,162,163,164,164,164,164,159,159,159,158,158,158,158,158,157,157,157,156,156,155,155,155,155,155,154,154,154,154,154,153,153,153,152,152,151,151,151,151,151,151,151,151,150,150,150,150,150,150,150,150,150,150,150,150,150,149,149,149,149,149,149,149,149,149,149,149,149,149,149,149,149,149,148,148,255,255,255,255,255,255,255,255,255,255,255,255,255,255,147,147,147,147,148,255,255,255,255,255,255,255,255,255,255,255,255,143,143,143,143,143,143,143,255,255,255,255,255,148,148,148,147,255,255,255,255,255,255,255,142,142,142,142,142,142,142,142,142,143,143,143,143,147,147,147,147,147,147,147,147,147,147,147,147,147,147,147,147,148,148,148,148,148,148,148,149,149,149,149,149,150,151,152,152,152,152,152,153,152,215,214,214,214,214,214,214,214,214,214,214,214,214,214,214,214,214,214,214,214,214,214,214,214,213,213,213,213,255,255,255,255,255,255,255,255
246,246,246,246,246,246,246,246,246,246,247,247,247,247,247,247,247,247,247,247,247,247,247,255,255,255,255,255,255,255,255,255,255,255,255,255,255,255,255,255,255,255,255,242,242,242,242,242,242,242,242,242,242,242,241,241,241,241,241,241,241,241,241,241,241,241,241,241,240,240,240,240,240,240,240,240,240,240,239,239,239,239,239,255,255,255,255,255,255,255,255,239,239,239,239,239,239,239,239,239,239,239,239,238,238,238,238,238,238,238,238,255,255,255,255,255,255,255,255,255,255,255,237,237,237,237,237,237,237,241,241,241,241,241,241,237,237,237,237,237,237,237,237,237,237,237,237,237,237,238,238,238,238,238,238,238,238,238,239,239,239,239,239,239,255,255,255,255,255,255,255,255,255,255,255,255,255,255,255,255,255,255,255,255,255,255,255,255,255,255,255,255,255,255,255,255,255,255,196,196,255,255,255,255,255,255,255,255,255,196,196,196,196,196,196,197,197,197,197,197,197,197,197,197,255,255,255,255,255,255,255,231,230,230,230,230,230,230,230,230,230,230,230,231,230,230,230,230,231,240,240,240,240,240,240,240,240,240,240,240,240,240,240,240,240,240,240,240,240,240,240,240,240,240,240,240,240,240,240,240,240,240,240,240,240,240,240,240,240,240,240,240,240,240,240,240,240,240,240,240,240,240,240,240,240,240,241,241,240,237,237,237,237,237,237,237,237,237,238,238,238,238,238,238,238,238,238,238,238,239,239,239,239,239,239,240,240,240,240,240,240,240,240,240,240,240,239,239,239,239,239,239,239,239,239,239,239,239,239,239,239,239,239,239,239,239,238,238,238,238,238,238,238,238,238,239,238,238,238,238,238,238,239,239,239,255,255,255,255,255,255,255,255,255,255,255,255,255,255,255,255,255,255,255,255,255,255,255,255,255,255,255,255,255,255,255,255,255,255,255,255,255,163,163,163,163,163,163,164,164,164,164,164,159,159,159,159,158,158,158,157,157,157,156,156,156,155,155,155,155,155,154,154,154,154,153,153,153,152,152,152,151,151,151,151,151,151,151,151,151,151,150,151,150,150,150,150,150,150,150,150,149,149,149,149,149,149,149,149,149,149,149,149,149,149,149,149,149,149,255,255,255,255,255,255,255,255,255,255,255,255,255,255,255,148,147,147,148,148,255,255,255,255,255,255,255,255,255,255,255,255,255,255,255,255,255,255,255,147,147,147,147,147,147,148,147,147,148,255,255,255,255,255,255,255,142,142,142,142,142,142,142,142,143,143,143,143,147,147,147,147,147,147,147,147,147,147,147,147,147,147,147,147,147,148,148,148,148,148,148,148,149,149,149,149,150,150,152,152,152,152,152,153,153,215,214,214,214,214,214,214,214,214,214,214,214,214,214,214,214,214,214,214,214,214,214,214,214,213,213,213,213,255,255,255,255,255,255,255,255
246,246,246,246,246,246,246,246,246,247,247,247,247,247,247,247,247,247,247,247,247,247,247,255,255,255,255,255,255,255,255,255,255,255,255,255,255,255,255,255,255,255,255,242,242,242,242,242,242,242,242,242,242,242,241,241,241,241,241,241,241,241,241,241,241,241,241,240,240,240,240,240,240,240,240,240,240,240,240,240,239,239,255,255,255,255,255,255,255,255,255,239,239,239,239,239,239,239,239,239,239,239,239,238,238,238,238,238,238,238,238,255,255,255,255,255,255,255,255,255,255,255,242,241,241,241,241,241,241,241,241,241,241,241,241,241,241,237,237,237,237,237,237,237,237,237,238,238,238,238,238,238,238,238,238,238,238,238,238,239,239,239,238,255,255,255,255,255,255,255,255,255,255,255,255,255,255,255,255,255,255,255,255,255,255,255,255,255,255,255,255,255,255,255,255,255,255,255,196,196,255,255,255,255,255,255,255,255,255,196,196,196,196,196,196,197,197,197,197,197,197,197,196,196,255,255,255,255,255,255,255,255,230,231,231,230,230,230,230,230,230,230,230,230,230,230,230,230,231,240,240,240,240,240,240,240,240,240,240,240,240,240,240,240,240,240,240,240,240,240,240,240,240,240,240,240,240,240,240,240,240,240,240,240,240,240,240,240,240,240,240,240,240,240,240,240,240,240,240,240,240,240,240,240,240,240,240,240,240,240,240,237,237,237,237,237,237,237,237,238,238,238,238,238,238,238,238,238,238,239,239,239,239,239,239,240,240,240,240,240,240,240,240,240,240,240,239,239,239,239,239,239,239,239,239,239,239,239,239,239,239,239,239,239,239,239,238,238,238,238,238,238,238,239,239,239,239,239,239,238,238,238,239,238,255,255,255,255,255,255,255,255,255,255,255,255,255,255,255,255,255,255,255,255,255,255,255,255,255,255,255,255,255,255,255,255,255,255,255,255,255,255,163,163,163,163,163,163,164,164,164,164,164,159,159,159,159,158,158,158,158,157,157,156,156,156,155,155,155,155,155,154,154,154,154,153,153,153,152,152,152,152,151,151,151,151,151,151,151,151,151,151,151,151,150,150,150,150,150,150,150,150,149,150,150,149,150,149,149,149,149,149,149,149,149,149,149,149,149,255,255,255,255,255,255,255,255,255,255,255,255,255,255,255,148,148,148,148,148,148,255,255,255,255,255,255,255,255,255,255,255,255,255,255,255,147,147,147,147,147,147,147,147,147,148,148,148,148,148,255,255,255,255,255,255,255,142,141,141,141,141,141,142,141,143,143,147,147,147,147,147,147,147,147,147,147,147,147,147,147,147,147,147,147,148,148,148,148,148,148,148,149,149,149,149,149,150,150,152,152,152,153,153,153,215,215,215,215,214,214,214,214,214,214,214,214,214,214,214,214,214,214,214,214,214,214,214,213,213,213,213,213,255,255,255,255,255,255,255,255
246,246,246,246,246,246,246,246,246,246,247,247,247,247,247,247,247,247,247,247,247,247,255,255,255,255,255,255,255,255,255,255,255,255,255,255,255,255,255,255,255,242,242,242,242,242,242,242,242,242,242,242,242,242,241,241,241,241,241,241,241,241,241,241,241,241,241,240,240,240,240,240,240,240,240,240,240,240,240,240,240,255,255,255,255,255,255,255,255,255,255,255,239,239,239,239,239,239,239,239,239,239,238,238,238,238,238,238,238,238,238,255,255,255,255,255,255,255,255,255,255,255,255,255,255,241,241,241,241,241,241,241,241,241,241,241,241,241,241,242,237,237,237,237,237,237,237,237,237,238,238,238,238,238,238,238,238,238,238,239,239,255,255,255,255,255,255,255,255,255,255,255,255,255,255,255,255,255,255,255,255,255,255,255,255,255,255,255,255,255,255,255,255,255,255,255,255,196,196,196,196,255,255,255,255,255,255,255,255,195,196,196,196,196,196,196,197,197,197,197,197,197,196,196,196,255,255,255,255,255,255,255,230,230,230,230,230,230,230,230,230,230,230,230,230,230,230,230,231,240,240,240,240,240,240,240,240,240,240,240,240,240,240,240,240,240,240,241,241,241,240,240,240,240,240,240,240,240,240,240,240,240,240,241,241,240,241,240,240,240,240,241,240,240,240,240,240,240,240,240,240,240,240,240,240,240,240,240,240,240,240,240,240,237,237,237,237,237,237,238,238,238,238,238,238,238,238,238,238,238,239,239,239,239,240,240,240,240,240,240,240,240,240,240,240,240,239,239,239,239,239,239,239,239,239,239,239,239,239,239,239,239,239,239,239,239,238,238,238,238,238,238,238,238,239,239,239,239,239,238,238,238,239,239,255,255,255,255,255,255,255,255,255,255,255,255,255,255,255,255,255,255,255,255,255,255,255,255,255,255,255,255,255,255,255,255,255,255,255,255,255,255,163,163,163,163,163,164,164,164,164,165,165,159,159,159,159,159,158,158,158,158,157,156,156,156,156,155,155,155,155,154,154,154,153,153,153,153,152,152,152,152,152,152,152,152,151,151,151,151,151,151,151,151,151,150,150,150,150,150,150,150,150,150,150,150,150,150,150,150,150,150,150,149,149,149,150,149,149,255,255,255,255,255,255,255,255,255,255,255,255,255,255,255,148,148,148,148,148,255,255,255,255,255,255,255,255,255,255,255,255,255,255,255,255,147,147,147,147,147,147,147,147,147,147,147,148,148,148,148,255,255,255,255,255,255,141,141,141,141,141,141,141,141,141,141,141,147,147,147,147,147,147,147,147,147,147,147,147,147,147,147,147,147,147,148,148,148,148,148,148,148,148,149,149,149,149,149,149,152,152,152,153,153,153,214,215,214,214,214,214,214,214,214,214,214,214,214,214,214,214,214,214,213,213,213,213,213,213,213,213,213,255,255,255,255,255,255,255,255
246,246,246,246,246,246,246,246,246,246,247,247,247,247,247,247,247,247,247,247,247,247,255,255,255,255,255,255,255,255,255,255,255,255,255,255,255,255,255,255,255,242,242,242,242,242,242,242,242,242,242,242,241,241,241,241,241,241,241,241,241,241,241,241,241,241,240,240,240,240,240,240,240,240,240,240,240,240,240,240,240,240,255,255,255,255,255,255,255,255,255,239,240,239,239,239,239,239,239,239,239,239,238,238,238,238,238,238,238,238,238,238,255,255,255,255,255,255,255,255,255,255,242,242,241,241,241,241,241,241,241,241,241,241,241,241,241,241,241,242,242,242,242,242,237,237,237,237,238,238,238,238,238,238,238,238,238,238,238,255,255,255,255,255,255,255,255,255,255,255,255,255,255,255,255,255,255,255,255,255,255,255,255,255,255,255,255,255,255,255,255,255,255,255,255,255,255,196,196,196,255,255,255,255,255,255,255,255,195,195,195,195,196,196,196,196,196,196,197,197,197,197,196,196,196,196,255,197,197,255,255,197,230,230,230,230,230,230,230,230,230,230,230,230,230,230,230,230,241,241,241,241,241,241,241,240,240,240,240,240,240,240,240,240,240,240,241,241,241,241,241,241,241,241,241,240,240,240,241,241,241,241,241,241,241,241,241,240,241,241,241,241,241,241,241,241,240,240,240,240,240,240,240,240,240,240,240,240,240,240,240,240,240,240,240,237,237,237,237,238,238,238,238,238,238,238,238,238,238,238,238,239,239,240,240,240,240,240,240,240,240,240,240,240,240,240,239,239,239,239,239,239,239,239,239,239,239,239,239,239,239,239,239,239,239,239,238,238,238,238,238,238,238,238,239,239,239,239,239,239,239,239,239,239,239,255,255,255,255,255,255,255,255,255,255,255,255,255,255,255,255,255,255,255,255,255,255,255,255,255,255,255,255,255,255,255,255,255,255,255,255,163,163,163,163,163,163,164,164,164,164,165,165,159,159,159,159,159,158,158,158,157,157,156,156,156,156,155,155,155,155,154,154,154,153,153,153,153,153,153,152,152,152,152,152,152,152,152,152,151,151,151,151,151,151,150,150,150,150,150,150,150,150,150,150,150,150,150,150,255,150,150,150,150,150,150,150,149,149,150,150,150,150,149,255,255,255,255,255,255,255,255,255,148,148,148,148,148,148,255,255,255,255,255,255,255,255,255,255,255,255,255,255,147,147,147,147,147,147,147,147,147,147,147,147,147,147,148,148,148,148,255,255,255,255,255,255,141,141,141,141,141,141,141,141,141,141,147,147,147,147,147,147,147,147,147,147,147,147,147,147,147,147,147,147,148,148,148,148,148,148,148,148,148,148,149,149,149,149,148,148,153,153,153,153,214,215,215,214,214,214,214,214,214,214,214,214,214,214,214,214,214,213,213,213,213,213,213,213,213,213,214,255,255,255,255,255,255,255,255
246,246,246,246,246,246,246,246,246,246,246,246,246,247,247,247,247,247,247,247,247,247,255,255,255,255,255,255,255,255,255,255,255,255,255,255,255,255,255,255,242,242,242,242,242,242,242,242,242,242,242,242,241,241,241,241,241,241,241,241,241,241,241,241,241,240,240,240,240,240,240,240,240,240,240,240,240,240,240,240,240,240,255,255,255,255,255,255,255,255,255,239,239,239,239,239,239,239,239,239,239,239,238,238,238,238,238,238,238,238,255,255,255,255,255,255,255,255,255,255,255,255,242,242,241,241,241,241,241,241,241,241,241,241,241,241,241,241,242,242,242,242,242,242,255,242,242,255,255,238,238,238,238,238,255,255,255,255,255,255,255,255,255,255,255,255,255,255,255,255,255,255,255,255,255,255,255,255,255,255,255,255,255,255,255,255,255,255,255,255,255,255,255,255,195,195,195,196,196,196,196,255,255,255,255,255,255,195,195,195,195,195,195,195,196,196,196,196,197,196,196,196,196,196,196,196,196,197,197,197,197,255,197,231,231,230,230,230,230,230,230,230,230,230,231,230,230,231,241,241,241,241,241,241,241,241,241,241,241,241,240,240,240,241,241,241,241,241,241,241,241,241,241,241,241,241,241,241,241,241,241,241,241,241,241,241,241,241,241,241,241,241,241,241,241,241,240,241,240,240,240,240,240,240,240,240,240,240,240,240,240,240,240,240,240,240,239,239,239,239,238,238,238,238,238,238,238,238,238,238,238,238,239,240,240,240,240,240,240,240,240,240,240,240,240,240,239,239,239,239,239,239,239,239,239,239,239,239,239,239,239,239,239,239,239,239,238,238,238,238,238,238,238,238,239,239,239,239,239,238,238,238,238,238,238,255,255,255,255,255,255,255,255,255,255,255,255,255,255,255,255,255,255,255,255,255,255,255,255,255,255,255,255,255,255,255,255,255,255,255,255,163,163,163,163,163,163,164,164,164,164,165,165,159,159,159,159,159,159,158,158,158,157,156,156,156,156,155,155,155,155,155,154,154,154,153,153,153,153,153,152,152,152,152,152,152,152,152,152,152,152,151,151,151,151,151,150,150,150,150,150,150,150,150,150,150,150,150,150,255,150,150,150,150,150,150,150,150,150,150,150,150,149,149,149,255,255,149,149,149,149,255,148,148,148,148,148,148,148,255,255,255,255,255,255,255,255,255,255,255,255,148,148,147,147,147,147,147,147,147,147,147,147,147,147,147,148,148,148,148,148,148,255,255,255,255,255,255,141,141,141,141,141,141,141,141,141,147,147,147,147,147,147,147,147,147,147,147,147,147,147,147,147,147,147,147,147,147,148,148,148,148,148,148,148,149,149,149,149,149,149,149,153,153,153,153,215,215,215,214,214,214,214,214,214,214,214,214,214,214,214,214,214,213,213,213,213,213,213,213,213,213,255,255,255,255,255,255,255,255
246,246,246,246,246,246,246,246,246,246,246,246,246,246,247,247,247,247,247,247,247,247,255,255,255,255,255,255,255,255,255,255,242,255,255,255,255,242,242,242,242,242,242,242,242,242,242,242,242,241,241,241,241,241,241,241,241,241,241,241,241,241,241,241,241,240,240,240,240,240,240,240,240,240,240,240,240,240,240,240,240,240,239,255,255,255,255,255,255,255,239,239,239,239,239,239,239,239,239,255,255,255,238,255,238,238,238,238,238,238,255,255,255,255,255,255,255,255,242,242,242,242,242,242,242,241,241,241,241,241,241,241,241,241,241,241,241,241,242,242,242,242,242,242,242,242,255,255,255,255,255,255,255,255,255,255,255,255,255,255,255,255,255,255,255,255,255,255,255,255,255,255,255,255,255,255,255,255,255,255,255,255,255,255,255,255,255,255,255,255,255,255,255,195,195,195,195,195,195,195,255,255,255,255,255,255,255,195,195,195,195,195,195,195,195,195,196,196,196,196,196,196,196,196,196,196,196,196,197,197,197,197,197,197,231,231,230,230,230,230,230,230,230,230,231,230,230,231,241,241,241,241,241,241,241,241,241,241,241,241,241,241,241,241,241,241,241,241,241,241,241,241,241,241,241,241,241,241,241,241,241,241,241,241,241,241,241,241,241,241,241,241,241,241,241,241,240,240,240,240,240,240,240,240,240,240,240,240,240,240,240,240,240,240,240,240,239,239,239,239,239,238,238,238,238,238,238,238,238,238,238,238,239,240,240,240,240,240,240,240,240,240,240,240,240,239,239,239,239,239,239,239,239,239,239,239,239,239,239,239,239,239,239,239,239,239,238,238,238,238,238,238,238,238,239,239,239,239,239,238,238,238,238,238,238,255,255,255,255,255,255,255,255,255,255,255,255,255,255,255,255,255,255,255,255,255,255,255,255,255,255,255,255,255,255,255,255,255,255,255,255,163,163,163,163,163,163,164,164,164,165,165,165,165,159,159,159,159,159,158,158,157,157,157,156,156,156,156,155,155,155,155,154,154,153,153,153,153,153,153,153,153,153,152,152,152,152,152,152,152,152,151,151,151,151,151,151,151,150,150,150,150,150,150,150,150,150,150,150,255,150,150,150,150,150,150,150,150,150,150,150,149,149,149,149,149,149,149,149,149,149,149,148,148,148,148,148,148,148,255,255,255,255,255,255,255,255,255,255,255,148,148,148,147,147,147,147,147,147,147,147,147,147,147,147,147,148,148,148,148,148,148,148,255,148,255,255,255,141,141,141,141,141,141,141,141,141,147,147,147,147,147,147,147,147,147,147,147,147,147,147,147,147,147,147,147,147,147,148,148,148,148,148,148,148,149,149,149,149,149,149,149,149,153,153,153,153,153,215,215,214,214,214,214,214,214,214,214,214,214,214,214,213,213,213,213,213,213,213,213,213,255,255,255,255,255,255,255,255,255
245,246,246,246,246,246,246,246,246,246,246,246,246,246,246,246,247,247,247,247,247,247,255,255,255,255,255,255,255,255,255,242,242,242,255,255,242,242,242,242,242,242,242,242,242,242,242,242,242,241,241,241,241,241,241,241,241,241,241,241,241,241,241,241,241,240,240,240,240,240,240,240,240,240,240,240,240,240,240,240,240,240,239,255,255,255,255,255,255,255,239,239,239,239,239,239,239,239,239,239,255,255,255,238,238,238,238,238,238,238,242,242,242,242,242,242,242,242,242,242,242,242,242,242,242,242,242,242,242,242,241,241,241,241,241,241,241,242,242,242,242,242,242,242,242,242,242,255,255,255,255,255,255,255,255,255,255,255,255,255,255,255,255,255,255,255,255,255,255,255,255,255,255,255,255,255,255,255,255,255,255,255,255,195,195,195,195,195,195,195,195,195,195,195,195,195,195,195,195,195,195,255,255,255,255,255,195,195,195,195,195,195,195,195,195,195,195,195,196,196,196,196,196,196,196,196,196,196,196,196,196,197,197,198,231,231,230,230,230,230,230,230,230,230,231,230,231,231,241,241,241,241,241,241,241,241,241,241,241,241,241,241,241,241,241,241,241,241,241,241,241,241,241,241,241,241,241,241,241,241,241,241,241,241,241,241,241,241,241,241,241,241,241,241,240,240,240,240,240,240,240,240,240,240,240,240,240,240,240,240,240,240,240,240,240,240,239,239,239,239,239,239,239,238,238,239,238,238,238,238,238,239,239,240,240,240,240,240,240,240,240,240,240,240,240,239,239,239,239,239,239,239,239,239,239,239,239,239,239,239,239,239,239,239,239,239,238,238,238,238,238,238,238,238,238,239,239,239,238,238,238,238,238,238,238,255,255,255,255,255,255,255,255,255,255,255,255,255,255,255,255,255,255,255,255,255,255,255,255,255,255,255,255,255,255,255,255,255,255,255,255,163,163,163,163,163,164,164,164,164,164,165,165,165,159,159,159,159,159,158,158,157,157,157,156,156,156,156,156,155,155,155,154,154,153,153,153,153,153,153,153,153,153,153,152,152,152,152,152,152,152,152,151,151,151,151,151,151,151,150,150,150,150,150,150,150,150,150,150,150,150,150,150,150,150,150,150,150,150,150,150,149,149,149,149,149,149,149,149,149,149,149,148,148,148,148,148,148,148,148,148,255,255,255,255,255,255,255,255,148,148,148,148,147,147,147,147,147,147,147,147,147,147,147,147,147,147,148,148,148,148,148,148,148,148,148,148,255,141,141,141,141,141,141,141,141,141,147,147,147,147,147,147,147,146,146,147,147,147,147,147,147,147,147,147,147,147,147,148,148,148,148,148,148,148,148,149,149,149,149,149,149,149,149,153,153,153,153,215,215,214,214,214,214,214,214,214,214,214,214,214,214,213,213,213,213,213,213,213,213,255,255,255,255,255,255,255,255,255,255
244,244,245,245,246,246,246,246,246,246,246,246,246,246,246,246,246,247,246,246,246,243,243,255,255,255,255,255,255,255,255,242,242,242,242,242,242,242,242,242,242,242,242,242,242,242,242,242,242,241,241,241,241,241,241,241,241,241,241,241,241,241,241,241,240,240,240,240,240,240,240,240,240,240,240,240,240,240,240,240,240,240,240,240,255,255,255,255,255,255,255,239,239,239,239,239,239,239,255,239,255,255,255,255,243,242,242,242,242,242,242,242,242,242,242,242,242,242,242,242,242,242,242,242,242,242,242,242,242,242,242,242,242,242,242,242,242,242,242,242,242,242,242,242,242,242,242,255,255,255,255,255,255,255,255,255,255,255,255,255,255,255,255,255,255,255,255,255,255,255,255,255,255,255,255,255,255,255,255,255,195,195,195,195,195,195,195,195,195,195,195,195,195,195,195,195,195,195,195,195,195,255,255,255,255,194,194,194,194,194,194,195,195,195,195,195,195,195,195,196,196,196,196,196,196,196,196,196,196,196,196,197,197,197,197,197,230,230,230,230,230,230,230,230,231,230,231,231,242,242,241,242,242,242,241,241,241,241,242,242,242,242,242,242,242,242,241,241,241,241,241,241,241,241,241,241,241,241,241,241,241,241,241,241,241,241,241,241,241,241,241,241,241,240,240,240,240,240,240,240,240,240,240,240,240,240,240,240,240,240,240,240,240,240,240,240,240,239,239,239,239,239,239,239,239,239,239,239,238,238,238,238,239,240,240,240,240,240,240,240,240,240,240,240,239,239,239,239,239,239,239,239,239,239,239,239,239,239,239,239,239,239,239,239,239,239,238,238,238,238,238,238,238,238,238,239,239,239,238,238,238,238,238,238,238,255,255,255,255,255,255,255,255,255,255,255,255,255,255,255,255,255,255,255,255,255,255,255,255,255,255,255,255,255,255,255,255,255,255,255,164,164,164,164,164,164,164,164,164,165,165,165,165,165,159,159,159,159,159,159,158,158,157,157,156,156,156,156,155,155,155,155,154,154,154,154,154,153,153,153,153,153,153,153,153,153,152,152,152,152,152,152,152,151,151,151,151,151,151,150,150,150,150,150,150,150,150,150,150,150,150,150,150,150,150,150,150,150,150,150,150,149,149,149,149,149,149,149,149,149,149,149,148,148,148,148,148,148,148,148,148,148,255,255,255,255,255,255,148,147,148,148,148,147,147,147,147,147,147,147,147,147,147,147,147,147,147,148,148,148,148,148,148,148,148,148,148,141,255,141,141,141,141,141,141,141,141,147,147,147,147,146,146,146,146,146,147,147,147,147,147,147,147,147,147,147,147,147,148,148,148,148,148,148,148,148,148,148,149,149,149,149,149,149,149,149,149,149,216,215,215,214,214,214,214,214,214,214,214,214,214,214,213,213,213,213,213,213,213,212,255,255,255,255,255,255,255,255,255,255
244,244,244,244,244,246,246,246,246,246,245,246,245,245,246,245,245,245,243,243,243,243,243,243,255,243,243,243,242,242,242,242,242,242,242,242,242,242,242,242,242,242,242,242,242,241,241,242,241,241,241,241,241,241,241,241,241,241,241,241,241,241,241,240,240,240,240,240,240,240,240,240,240,240,240,240,240,240,240,240,240,240,239,239,255,255,255,255,255,255,255,255,255,239,239,239,239,239,239,243,243,243,255,243,243,242,242,242,242,242,242,242,242,242,242,242,242,242,242,242,242,242,242,242,242,242,242,242,242,242,242,242,242,242,242,242,242,242,242,242,242,242,242,242,242,242,242,242,255,255,255,255,255,255,255,255,255,255,255,255,255,255,255,255,255,255,255,255,255,255,255,255,255,255,255,255,255,255,255,195,195,195,195,195,195,195,195,195,195,195,195,195,195,195,195,195,195,195,195,195,195,194,194,194,194,194,194,194,194,194,194,194,194,195,195,195,195,195,195,195,195,195,196,196,196,196,196,196,196,196,196,196,197,197,197,231,231,231,230,230,230,230,230,230,231,230,231,231,231,242,241,242,242,242,241,241,241,242,242,242,242,242,242,242,242,242,242,242,241,241,241,241,241,241,241,241,241,241,241,241,241,241,241,241,241,241,241,241,241,241,241,241,241,240,240,240,240,240,240,240,240,240,240,240,240,240,240,240,240,240,240,240,240,240,240,240,240,240,240,239,239,239,239,239,239,239,239,239,238,238,238,238,239,240,240,240,240,240,240,240,240,240,240,240,239,239,239,239,239,239,239,239,239,239,239,239,239,239,239,239,239,239,239,239,239,239,238,238,238,238,238,238,238,238,238,238,239,239,238,238,238,238,238,238,238,255,255,255,255,255,255,255,255,255,255,255,255,255,255,255,255,255,255,255,255,255,255,255,255,255,255,255,255,255,255,255,255,255,255,255,164,164,164,164,164,164,164,165,165,165,165,165,165,165,159,159,159,159,160,159,158,158,157,157,156,156,156,156,156,155,155,155,155,155,155,154,154,154,154,154,154,153,154,154,153,153,153,152,152,152,152,152,152,152,151,151,151,151,151,150,150,150,150,150,150,150,150,150,150,150,150,150,150,150,150,150,150,150,150,150,150,150,149,149,149,149,149,149,149,149,149,148,148,148,148,148,148,148,148,148,148,148,255,255,255,255,255,255,147,147,148,148,148,147,147,147,147,147,147,147,147,147,147,147,147,147,147,147,148,148,148,148,148,148,148,148,148,255,255,255,141,141,141,141,141,141,141,141,147,147,146,146,147,146,146,146,146,147,147,147,147,147,147,147,147,147,147,147,147,148,148,148,148,148,148,148,148,148,148,149,149,149,149,149,149,149,149,149,216,216,215,214,214,214,214,214,214,214,214,214,214,214,214,213,213,213,213,213,255,255,255,255,255,255,255,255,255,255,255,255
244,244,244,244,244,244,244,244,245,245,245,244,245,244,244,244,244,244,244,243,243,243,242,242,242,242,242,242,242,242,242,242,242,242,242,242,242,242,242,242,242,242,242,242,242,242,241,242,255,255,241,241,255,255,255,255,241,241,241,241,241,241,240,240,240,240,240,240,240,240,240,240,240,240,240,240,240,240,240,240,239,239,239,239,255,255,255,255,255,255,255,255,255,255,255,255,255,255,255,255,243,255,255,255,243,242,242,242,242,242,242,242,242,242,242,242,242,242,242,242,242,242,242,242,242,242,242,242,242,242,242,242,242,242,242,242,242,242,242,242,242,242,242,242,242,242,242,255,255,255,255,255,255,255,255,255,255,255,255,255,255,255,255,255,255,255,255,255,255,255,255,255,255,255,255,255,255,255,255,195,195,195,195,195,195,195,195,195,195,195,195,195,195,195,195,195,195,195,195,195,194,194,194,194,194,194,194,194,194,194,194,194,194,194,194,194,195,195,195,195,195,195,195,195,195,195,195,195,196,196,196,196,197,197,197,198,198,198,230,230,230,230,230,230,230,230,231,231,231,231,242,242,242,242,242,242,242,242,242,242,242,242,242,242,242,242,242,242,242,242,242,242,241,241,241,241,241,241,241,241,241,241,241,241,241,241,241,241,241,241,241,241,241,241,240,240,240,240,240,240,240,240,240,240,240,240,240,240,240,240,240,240,240,240,240,240,240,240,240,240,239,239,239,239,239,239,239,239,239,238,238,238,238,239,240,240,240,240,240,240,240,240,240,240,239,239,239,239,239,239,239,239,239,239,239,239,239,239,239,239,239,239,239,239,239,238,238,238,238,238,238,238,238,238,238,238,238,238,238,238,238,238,238,238,238,255,255,255,255,255,255,255,255,255,255,255,255,255,255,255,255,255,255,255,255,255,255,255,255,255,255,255,255,255,255,255,255,255,255,255,164,164,164,164,164,164,165,165,165,166,166,166,166,166,159,159,159,160,160,160,159,158,157,157,156,157,157,157,156,156,155,155,155,155,155,155,155,155,154,154,154,154,154,154,154,154,154,153,153,153,152,152,152,151,151,151,151,151,151,150,150,150,150,150,150,150,150,151,151,151,151,150,150,150,150,150,150,150,150,150,150,150,149,149,149,149,149,149,149,149,148,148,148,148,148,148,148,148,148,148,148,148,148,255,255,255,255,147,147,147,147,147,147,147,147,147,147,147,147,147,147,147,147,147,147,147,147,147,147,147,148,148,148,148,148,148,148,255,255,255,255,255,141,141,141,141,141,141,147,146,146,146,146,146,146,146,146,147,147,147,147,147,147,147,147,147,147,147,147,147,148,148,148,148,148,148,148,148,148,148,149,149,149,149,149,149,149,149,149,216,215,215,214,214,214,214,214,214,214,214,214,214,214,213,213,213,213,213,255,255,255,255,255,255,255,255,255,255,255,255
244,244,244,244,244,244,244,244,244,244,244,244,244,244,244,244,244,244,243,243,243,243,242,242,242,242,242,242,242,242,242,242,242,242,242,242,242,242,242,241,241,241,241,241,241,241,255,255,255,255,255,255,255,255,255,255,241,241,241,241,241,241,240,240,240,240,240,240,240,240,240,240,240,240,240,240,240,239,240,239,239,239,239,239,255,255,255,255,255,255,255,255,255,255,255,243,243,243,243,243,243,243,243,243,243,243,242,242,242,242,242,242,242,242,242,242,242,242,242,242,242,242,242,242,242,242,242,242,242,242,242,242,242,242,242,242,242,242,242,242,242,242,242,242,242,242,242,242,255,255,255,255,255,255,255,255,255,255,255,255,255,255,255,255,255,255,255,255,255,255,255,255,255,255,255,255,255,255,255,195,195,195,195,195,195,195,195,195,195,195,195,195,195,195,195,195,195,195,194,194,194,194,194,194,194,194,194,194,194,194,194,194,194,194,194,194,194,195,195,195,195,195,195,195,195,195,195,195,195,196,196,196,196,197,197,197,197,198,230,230,230,230,230,230,230,230,230,230,231,242,242,242,242,242,242,242,242,242,242,242,242,242,242,242,242,242,242,242,242,242,242,242,241,241,241,241,241,241,241,241,241,241,241,241,241,241,241,241,241,241,240,240,240,240,240,240,240,240,240,240,240,240,240,240,240,240,240,240,240,240,240,240,240,240,240,240,240,240,240,240,239,239,239,239,239,239,239,239,239,238,238,238,238,238,240,240,240,240,240,240,240,240,240,239,239,239,239,239,239,239,239,239,239,239,239,239,239,239,239,239,239,239,239,239,239,238,238,238,238,238,238,238,238,238,238,238,238,238,238,238,238,238,238,238,238,238,255,255,255,255,255,255,255,255,255,255,255,255,255,255,255,255,255,255,255,255,255,255,255,255,255,255,255,255,255,255,255,255,255,255,164,164,164,164,164,164,165,165,166,166,166,167,167,167,160,160,160,160,160,160,159,159,159,157,157,157,157,157,156,156,156,156,156,156,156,155,155,155,155,155,155,154,154,154,154,154,154,154,154,154,152,152,152,151,151,151,151,151,150,150,150,150,150,150,150,150,151,151,151,151,151,150,150,150,150,150,150,150,150,150,150,150,149,149,149,149,149,149,149,149,148,148,148,148,148,148,148,148,148,148,148,148,148,255,255,255,255,255,147,147,147,147,147,147,147,147,147,147,147,147,147,147,147,147,147,147,147,147,147,147,147,147,148,148,148,148,148,255,255,255,255,255,255,141,141,141,141,141,141,141,146,146,146,146,146,146,146,146,147,147,147,147,147,147,147,147,147,147,148,148,148,148,148,148,148,148,148,148,148,148,148,149,149,149,149,149,149,149,149,149,215,214,214,214,214,214,214,214,214,214,255,214,255,255,213,213,213,255,255,255,255,255,255,255,255,255,255,255,255,255
244,244,244,244,244,244,244,244,244,243,244,244,244,244,244,244,243,243,243,243,243,242,242,242,242,242,242,242,242,242,242,242,242,242,242,242,242,242,242,241,241,241,241,241,241,255,255,255,255,255,255,255,255,255,255,255,255,241,241,241,240,240,240,240,240,240,240,240,240,240,240,240,240,240,240,240,240,239,239,239,239,239,239,255,255,255,255,255,255,255,255,255,255,243,255,243,243,243,243,243,243,243,243,243,243,243,243,243,242,242,243,243,243,243,243,243,243,243,243,243,243,243,243,243,243,243,243,243,243,243,243,243,242,242,243,243,243,243,243,242,242,242,242,242,242,242,242,242,255,255,255,255,255,255,255,255,255,255,255,255,255,255,255,255,255,255,255,255,255,255,255,255,255,255,255,255,255,255,255,195,195,195,195,195,195,195,195,195,195,195,195,195,195,195,195,195,195,194,194,194,194,194,194,194,194,194,194,194,194,194,194,194,194,194,194,194,194,194,194,194,194,195,255,255,255,255,255,195,195,196,196,196,196,197,197,197,197,197,197,230,230,230,230,230,230,231,231,231,231,242,242,242,242,242,242,242,242,242,242,242,242,242,242,242,242,242,242,242,242,242,242,242,241,241,241,241,241,241,241,241,241,241,241,241,241,241,241,241,241,240,240,240,240,240,240,240,240,240,240,240,240,240,240,240,240,240,240,240,240,240,240,240,240,240,240,240,240,240,240,240,240,239,239,239,239,239,239,239,239,239,238,238,238,238,239,239,240,240,240,240,240,240,239,239,239,239,239,239,239,239,239,239,239,239,239,239,239,239,239,239,239,239,239,239,239,238,238,238,238,238,238,238,238,238,238,238,238,238,238,238,238,238,238,238,238,238,255,255,255,255,255,255,255,255,255,255,255,255,255,255,255,255,255,255,255,255,255,255,255,255,255,255,255,255,255,255,255,255,255,255,164,164,164,164,164,165,165,165,166,166,166,166,167,167,167,167,160,160,160,160,160,159,159,159,159,159,157,157,156,156,156,156,156,156,156,156,155,155,155,155,155,154,154,154,154,154,154,154,154,255,255,255,152,151,151,151,151,151,151,150,150,150,150,150,150,150,151,151,151,151,151,150,150,150,150,150,150,150,150,150,150,150,149,149,149,149,149,149,149,148,148,148,148,148,148,148,148,148,148,148,148,148,148,148,255,255,147,255,255,147,147,147,147,147,147,147,147,147,147,147,147,147,147,147,147,147,147,147,147,147,147,147,147,148,147,148,148,148,255,255,255,255,255,141,141,141,141,141,141,141,146,146,146,146,146,146,146,146,147,147,147,147,147,147,147,147,147,147,147,147,147,147,147,148,148,148,148,148,148,148,148,148,149,149,149,149,149,149,149,149,149,150,150,150,150,150,255,255,255,255,255,255,255,255,255,255,255,255,255,255,255,255,255,255,255,255,255,255,255,255
244,244,244,244,244,244,244,244,244,243,243,243,243,243,244,243,243,243,243,243,243,242,242,242,242,242,242,242,242,242,242,242,255,255,255,255,255,255,255,241,241,241,241,241,241,255,255,255,255,255,255,255,255,255,255,255,255,255,241,241,240,240,240,240,240,240,240,240,240,240,240,240,240,255,255,255,255,255,255,255,255,255,255,255,255,255,255,255,255,243,243,243,243,243,243,243,243,243,243,243,243,243,243,243,243,243,243,243,243,243,243,243,243,243,243,243,243,243,243,243,243,243,243,243,243,243,243,243,243,243,243,243,243,243,243,243,243,243,243,243,243,243,242,242,242,243,242,255,255,255,255,255,255,255,255,255,255,255,255,255,255,255,255,255,255,255,255,255,255,255,255,255,255,255,255,255,255,255,255,255,195,195,195,195,195,194,195,194,194,194,194,195,195,195,194,194,194,194,194,194,194,194,194,194,194,194,194,194,194,194,194,194,194,194,194,194,194,194,194,194,194,255,255,255,255,255,255,195,195,195,196,196,196,196,196,196,196,230,230,230,230,230,230,230,230,230,231,231,231,242,242,242,242,242,242,242,242,242,242,242,242,242,242,242,242,242,242,242,242,242,242,242,241,241,241,241,241,241,241,241,241,241,241,241,241,241,241,241,241,241,240,240,240,240,240,240,240,240,240,240,240,240,240,240,240,240,240,240,240,240,240,240,240,240,240,240,240,240,240,240,240,240,239,239,239,239,239,239,239,239,239,238,238,238,239,239,240,240,240,240,240,240,239,239,239,239,239,239,239,239,239,239,239,239,239,239,239,239,239,239,239,239,239,239,239,238,238,238,238,238,238,238,238,238,238,238,238,238,238,238,238,238,238,238,238,255,255,255,255,255,255,255,255,255,255,255,255,255,255,255,255,255,255,255,255,255,255,255,255,255,255,255,255,255,255,255,255,255,255,255,164,164,164,165,165,165,165,166,166,166,166,167,167,167,167,167,160,160,160,160,160,160,160,159,160,159,159,159,157,157,156,156,156,156,156,156,155,155,155,155,155,155,155,154,154,154,154,154,154,255,255,255,255,151,151,151,151,150,150,150,150,150,150,150,150,150,150,151,151,151,151,151,150,150,150,150,150,150,150,150,150,150,149,149,149,149,149,149,149,148,148,148,148,148,148,148,148,148,148,148,148,148,148,148,148,147,147,147,147,147,147,147,147,147,147,147,147,147,147,147,147,147,147,147,147,147,147,147,147,147,147,147,147,148,148,148,148,148,255,255,255,255,255,141,141,141,141,141,141,141,141,146,146,146,146,146,146,146,146,147,147,147,147,147,147,147,147,147,147,147,147,147,147,148,148,148,148,148,148,148,148,148,148,148,148,148,149,149,149,149,149,150,150,150,150,150,255,255,255,255,255,255,255,255,255,255,255,255,255,255,255,255,255,255,255,255,255,255,255,255
244,244,244,244,244,244,244,244,244,243,243,243,244,244,243,243,243,243,243,243,243,242,242,242,242,242,242,242,242,242,242,255,255,255,255,255,255,255,255,241,241,241,241,241,241,255,255,255,255,255,255,255,255,255,255,255,255,255,255,241,240,240,240,240,240,240,240,240,241,240,240,240,255,255,255,255,255,255,255,255,255,255,255,255,255,255,255,255,255,243,243,243,243,243,243,243,243,243,243,243,243,243,243,243,243,243,243,243,243,243,243,243,243,243,243,243,243,243,243,243,243,243,243,243,243,243,243,243,243,243,243,243,243,243,243,243,243,243,243,243,243,243,243,243,243,243,243,255,255,255,255,255,255,255,255,255,255,255,255,255,255,255,255,255,255,255,255,255,255,255,255,255,255,255,255,255,255,255,255,255,195,195,195,194,194,194,194,194,194,194,194,194,194,194,194,194,194,194,194,194,193,194,193,193,193,194,194,194,193,193,193,194,194,194,194,194,194,194,194,194,194,255,255,255,255,255,255,255,195,195,195,195,196,196,196,196,255,255,196,255,255,230,230,230,230,231,231,231,255,255,242,242,242,242,242,242,242,242,242,242,242,242,242,242,242,242,242,242,242,242,242,242,241,241,241,241,241,241,241,241,241,241,241,241,241,241,241,241,241,241,241,240,240,240,240,240,240,240,240,240,240,240,240,240,240,240,240,240,240,240,240,240,240,240,240,240,240,240,240,240,240,240,239,239,239,239,239,239,239,239,239,238,238,239,239,239,240,240,240,240,240,240,239,239,239,239,239,239,239,239,239,239,239,239,239,239,239,239,239,239,239,239,239,239,238,238,238,238,238,238,238,238,238,238,238,238,238,238,238,238,238,238,238,238,255,255,255,255,255,255,255,255,255,255,255,255,255,255,255,255,255,255,255,255,255,255,255,255,255,255,255,255,255,255,255,255,255,255,255,255,165,165,165,165,165,165,165,166,166,166,166,167,167,167,167,167,160,160,160,160,160,160,160,159,160,159,159,255,157,157,157,157,156,156,156,156,155,155,155,155,155,155,155,155,155,155,155,154,154,255,255,255,255,255,255,255,150,150,150,150,150,150,150,150,150,150,151,151,151,151,151,151,151,151,151,151,150,150,150,150,150,150,150,149,149,149,149,149,149,148,148,148,148,148,148,148,148,148,148,148,148,148,148,148,148,147,147,147,147,147,147,147,147,147,147,147,147,147,147,147,147,147,147,147,147,147,147,147,147,147,147,147,147,147,147,148,148,148,255,255,255,255,255,255,141,141,141,141,141,141,141,146,146,146,146,146,146,146,146,146,147,147,147,147,147,147,147,147,147,147,147,147,147,147,147,148,148,148,148,148,148,148,148,148,148,148,149,149,149,149,149,149,150,150,150,150,255,255,255,255,255,255,255,255,255,255,255,255,255,255,255,255,255,255,255,255,255,255,255,255
243,244,243,243,243,243,243,243,243,243,243,243,243,244,243,243,243,243,243,243,242,242,242,242,242,242,242,242,242,242,255,255,255,255,255,255,255,255,255,255,255,241,241,241,241,255,255,255,255,255,255,255,255,255,255,255,255,255,255,255,240,240,240,240,240,240,240,240,241,240,240,240,255,255,255,255,255,255,255,255,255,244,244,243,243,243,255,255,243,243,243,243,243,243,243,243,243,243,243,243,243,243,243,243,243,255,255,255,244,244,244,243,243,243,243,243,243,243,243,243,243,243,243,243,243,243,243,243,243,243,243,243,243,243,243,243,243,243,243,243,243,243,243,243,243,243,243,255,255,255,255,255,255,255,255,255,255,255,255,255,255,255,255,255,255,255,255,255,255,255,255,255,255,255,255,255,255,255,255,255,255,195,194,194,194,194,194,194,194,194,194,194,194,194,194,194,194,194,194,193,193,193,193,193,193,193,193,193,193,193,193,193,194,194,194,193,194,194,194,194,255,255,255,255,255,255,255,194,195,195,195,195,195,195,195,195,196,196,196,255,255,255,230,230,230,231,231,255,255,255,255,242,242,242,242,242,242,242,242,242,242,242,242,242,242,242,242,242,242,242,242,241,241,241,241,241,241,241,241,241,241,241,241,241,241,241,241,241,241,241,241,241,241,241,240,240,240,240,240,240,240,240,240,240,240,240,240,240,240,240,240,240,240,240,240,240,240,240,240,240,240,240,240,239,239,239,239,239,239,239,239,238,238,239,239,239,240,240,240,240,240,240,239,239,239,239,239,239,239,239,239,239,239,239,239,239,239,239,239,239,239,239,239,239,238,238,238,238,238,238,238,238,238,238,238,239,238,238,238,238,238,238,238,238,255,255,255,255,255,255,255,255,255,255,255,255,255,255,255,255,255,255,255,255,255,255,255,255,255,255,255,255,255,255,255,255,255,255,255,255,165,165,165,165,165,165,165,166,166,166,167,167,167,167,167,160,160,160,160,160,160,160,160,160,160,160,160,255,157,157,157,157,157,157,156,156,156,156,155,155,155,155,155,155,155,155,155,255,255,255,255,255,255,255,255,255,150,150,150,150,150,150,150,150,150,150,150,150,151,151,151,150,150,151,151,151,150,150,150,150,150,150,150,149,149,149,149,149,149,148,148,148,148,148,148,148,148,148,148,148,148,148,148,148,147,147,147,147,147,147,147,147,147,147,147,147,147,147,147,147,147,147,147,147,147,147,147,147,147,147,147,147,148,148,148,148,148,148,255,255,255,255,255,255,141,141,141,141,141,141,141,146,146,146,146,146,146,146,146,146,146,147,147,147,147,147,147,147,147,147,147,147,147,147,148,148,148,148,148,148,148,148,148,148,148,148,148,149,149,149,149,149,150,150,150,150,150,255,255,255,255,255,255,255,255,255,255,255,255,255,255,255,255,255,255,255,255,255,255,255
243,244,243,243,243,243,243,243,243,243,243,243,243,243,243,255,255,255,255,243,243,242,242,242,242,242,242,242,255,255,255,255,255,255,255,255,255,255,255,255,255,241,241,241,241,255,255,255,255,255,255,255,255,255,255,255,255,255,255,255,255,240,240,240,241,240,240,241,241,241,243,243,255,255,255,255,255,255,255,244,243,243,243,243,243,243,243,243,243,243,243,243,243,243,243,244,244,244,244,243,243,243,243,255,255,255,255,255,255,244,244,244,244,244,243,243,243,243,243,243,243,243,244,244,243,243,244,244,243,243,243,243,243,243,243,243,243,243,243,243,243,243,243,243,243,255,255,255,255,255,255,255,255,255,255,255,255,255,255,255,255,255,255,255,255,255,255,255,255,255,255,255,255,255,255,255,255,255,255,255,255,194,194,194,194,194,194,194,194,194,194,194,194,194,194,194,194,193,193,193,193,193,193,193,193,193,193,193,193,193,193,193,194,193,193,193,193,193,193,193,255,255,255,255,255,255,255,255,194,195,195,195,195,195,195,195,196,196,255,255,255,255,255,230,230,255,255,255,255,255,255,242,242,242,242,242,242,242,242,242,242,242,241,241,241,242,242,242,242,242,241,241,241,241,241,241,241,241,242,241,241,241,241,241,241,241,241,241,241,241,241,241,241,241,241,241,240,240,240,240,241,241,241,241,241,241,241,241,241,241,241,241,241,241,241,241,241,240,240,240,240,240,240,239,239,239,239,239,239,239,239,238,238,239,239,240,240,240,240,240,240,240,239,239,239,239,239,238,238,239,239,239,239,239,239,239,239,239,239,239,239,239,239,239,238,238,238,238,238,238,238,238,238,238,238,239,238,238,238,238,238,238,238,238,255,255,255,255,255,255,255,255,255,255,255,255,255,255,255,255,255,255,255,255,255,255,255,255,255,255,255,255,255,255,255,255,255,255,255,255,165,165,165,165,165,165,165,166,166,166,167,167,167,167,167,160,160,160,160,160,160,160,160,160,160,160,255,255,255,255,255,157,157,157,156,156,156,156,156,155,155,155,155,155,155,155,155,255,255,255,255,255,255,255,255,255,150,150,150,150,150,150,150,150,150,150,150,150,151,151,150,150,150,150,151,150,150,150,150,150,150,150,150,149,149,149,149,149,149,149,148,148,148,148,148,148,148,148,148,148,148,147,147,147,147,147,147,147,147,147,147,147,147,147,147,147,147,147,147,147,147,147,147,147,147,147,147,147,147,147,147,148,148,148,148,148,148,148,149,149,255,255,255,255,255,141,141,141,141,141,141,146,146,146,146,146,146,146,146,146,146,147,147,147,147,147,147,147,147,147,147,147,147,147,148,148,148,148,148,148,148,148,148,148,148,148,148,149,149,149,149,149,149,150,150,150,150,255,255,255,255,255,255,255,255,255,255,255,255,255,255,255,255,255,255,255,255,255,255,255
243,244,243,243,243,243,243,243,243,243,243,243,243,255,255,255,255,255,255,255,242,242,242,242,242,242,242,242,255,255,255,255,255,255,255,255,255,255,255,255,255,241,241,241,241,255,255,255,255,255,255,255,255,255,255,255,255,255,255,255,255,255,255,255,241,241,241,242,242,243,243,255,255,255,255,255,255,255,255,244,244,243,243,243,243,243,243,243,243,243,243,243,243,243,244,244,244,244,244,244,255,255,255,255,255,255,255,255,244,244,244,244,244,244,244,244,244,244,243,243,243,243,244,244,244,244,244,244,244,244,244,243,243,244,244,244,243,243,244,244,244,243,243,243,243,255,255,255,255,255,255,255,255,255,255,255,255,255,255,255,255,255,255,255,255,255,255,255,255,255,255,255,255,255,255,255,255,255,255,255,255,194,194,194,194,194,194,194,194,194,194,194,194,194,194,194,194,193,193,193,193,193,193,193,193,193,193,193,193,193,193,193,193,193,193,193,193,193,193,193,193,255,255,255,255,255,255,194,194,194,194,195,195,195,195,195,195,196,196,255,255,255,255,255,230,255,255,255,255,255,242,242,242,242,242,242,242,242,242,242,242,242,241,242,241,242,242,242,242,242,242,242,242,241,241,241,241,242,242,241,241,241,241,241,241,241,241,241,241,241,241,241,241,241,241,241,241,241,241,241,241,241,241,241,241,241,241,241,241,241,241,241,241,241,241,241,241,240,240,240,240,240,240,239,239,239,239,239,239,239,239,239,239,239,239,240,240,240,240,240,240,239,239,239,239,238,238,238,238,239,239,239,239,239,239,239,239,239,239,239,239,239,239,239,238,238,238,238,238,238,238,238,238,238,238,238,238,238,238,238,238,238,238,238,255,255,255,255,255,255,255,255,255,255,255,255,255,255,255,255,255,255,255,255,255,255,255,255,255,255,255,255,255,255,255,255,255,255,255,165,165,165,165,165,165,165,165,166,166,167,167,167,167,167,167,167,167,160,160,160,160,160,160,160,160,160,160,255,255,255,255,255,255,157,157,157,156,156,156,156,156,156,156,156,156,156,156,255,255,255,255,255,255,255,255,150,150,150,150,150,150,150,150,150,150,150,150,150,150,150,150,150,150,150,150,150,150,150,150,150,150,150,150,149,149,149,149,149,149,149,148,148,148,148,148,148,148,148,148,148,148,147,147,147,147,147,147,147,147,147,147,147,147,147,147,147,147,147,147,147,147,147,147,147,147,147,147,147,147,147,147,148,148,148,148,148,148,148,149,149,255,255,255,255,255,255,141,141,141,141,141,146,146,146,146,146,146,146,146,146,146,146,147,147,147,147,147,147,147,147,147,147,147,147,147,148,148,148,148,148,148,148,148,148,148,148,148,148,148,149,149,149,149,149,150,150,150,150,255,255,255,255,255,255,255,255,255,255,255,255,255,255,255,255,255,255,255,255,255,255
243,244,243,243,243,243,243,243,243,243,243,243,243,255,255,255,255,255,255,255,242,242,242,242,242,242,242,242,255,255,255,255,255,255,255,255,255,255,255,255,255,241,241,241,255,255,255,255,255,255,255,255,255,255,255,255,255,255,255,255,255,255,255,255,241,242,242,242,243,243,255,255,255,255,255,255,255,255,243,244,244,243,243,243,243,243,243,243,243,243,243,243,244,244,244,244,244,244,244,244,255,255,255,255,255,255,255,255,244,244,244,244,244,244,244,244,244,244,244,244,244,244,244,244,244,244,244,244,244,244,244,244,244,244,244,244,244,244,244,244,244,243,243,243,255,255,255,255,255,255,255,255,255,255,255,255,255,255,255,255,255,255,255,255,255,255,255,255,255,255,255,255,255,255,255,255,255,255,255,255,255,193,193,193,194,194,194,194,194,194,194,194,194,193,193,193,193,193,193,193,193,193,193,193,193,193,193,193,193,193,193,193,193,193,193,193,193,193,193,193,193,193,255,255,255,255,255,194,194,194,194,195,195,195,195,195,195,196,255,255,255,255,255,255,255,255,255,255,255,255,242,242,242,242,242,242,242,242,242,242,242,242,242,242,241,242,242,242,242,242,242,242,242,241,241,241,241,233,233,233,233,241,241,241,241,241,241,241,241,241,241,241,241,241,241,241,241,241,241,241,241,241,241,241,241,241,241,241,241,241,241,241,241,241,241,241,241,241,241,240,240,240,240,239,239,239,239,239,239,239,239,239,239,239,239,240,240,240,240,240,240,239,239,239,239,239,238,238,238,238,239,239,239,239,239,239,239,239,239,239,239,239,239,239,238,238,238,238,238,238,238,238,238,238,238,238,238,238,238,238,238,238,238,238,255,255,255,255,255,255,255,255,255,255,255,255,255,255,255,255,255,255,255,255,255,255,255,255,255,255,255,255,255,255,255,255,255,255,255,255,165,165,165,165,165,165,166,166,166,167,167,167,167,167,167,167,167,255,255,255,160,160,160,160,160,160,160,160,255,255,255,255,255,255,255,157,156,157,156,156,156,156,156,156,156,156,156,255,255,255,255,255,255,255,150,150,150,150,150,150,150,149,149,150,149,149,149,149,150,150,150,150,150,150,150,150,150,150,150,150,150,150,150,149,149,149,149,149,149,149,148,148,148,148,148,148,148,148,148,148,148,147,147,147,147,147,147,147,147,147,147,147,147,147,147,147,147,147,147,147,147,147,147,147,147,147,147,147,147,147,147,148,148,148,148,148,149,149,149,149,149,255,255,255,255,255,141,141,141,141,141,141,146,146,146,146,146,146,146,146,146,146,146,147,147,147,147,147,147,147,147,147,147,147,147,148,148,148,148,148,148,148,148,148,148,148,148,148,148,149,149,149,149,149,150,150,150,150,150,255,255,255,255,255,255,255,255,255,255,255,255,255,255,255,255,255,255,255,255,255
255,243,243,243,243,243,243,243,243,243,243,243,255,255,255,255,255,255,255,255,255,242,242,242,242,242,242,255,255,255,255,255,255,255,255,255,255,255,255,255,255,255,255,255,255,255,255,255,255,255,255,255,255,255,255,255,255,255,255,255,255,255,255,255,255,242,242,242,243,243,243,243,243,243,243,243,243,243,243,243,243,243,243,243,243,243,243,243,243,243,244,244,244,244,244,244,244,244,244,244,255,255,255,255,255,255,255,255,244,244,244,244,244,244,244,244,244,244,244,244,244,244,244,244,244,244,244,244,244,244,244,244,244,244,244,244,244,244,244,244,244,243,243,255,255,255,255,255,255,255,255,255,255,255,255,255,255,255,255,255,255,255,255,255,255,255,255,255,255,255,255,255,255,255,255,255,255,255,255,255,193,193,193,194,194,194,194,194,193,194,193,193,193,193,193,192,192,192,192,192,193,193,193,193,193,193,193,193,193,193,193,193,193,193,193,193,193,193,193,193,193,193,193,193,255,255,255,194,194,194,194,194,195,195,195,195,255,255,255,255,255,255,255,255,255,255,255,255,255,255,242,242,242,242,242,242,242,242,242,242,242,242,242,242,241,242,242,242,242,242,242,242,242,242,233,233,233,233,233,233,233,233,233,233,241,241,241,241,241,241,241,241,241,241,241,241,241,241,241,241,241,241,241,241,241,241,241,241,241,241,241,241,241,241,241,241,241,241,241,241,240,240,240,239,239,239,239,239,239,239,239,239,239,239,239,240,240,240,240,240,240,239,239,239,239,239,238,238,238,239,239,239,239,239,239,239,239,239,239,239,239,239,239,239,238,238,238,238,238,238,238,238,238,238,238,238,238,238,238,238,238,238,238,238,255,255,255,255,255,255,255,255,255,255,255,255,255,255,255,255,255,255,255,255,255,255,255,255,255,255,255,255,255,255,255,255,255,255,255,255,165,165,165,165,165,165,166,166,167,167,167,167,167,167,167,167,255,255,255,255,255,160,160,160,160,160,160,160,255,255,255,255,255,255,255,157,157,157,156,156,156,156,156,156,156,156,156,155,155,155,255,255,255,255,150,150,150,150,149,149,149,149,149,149,149,149,149,149,150,150,150,150,150,150,150,150,150,150,150,150,150,150,150,149,149,149,149,149,149,149,148,148,148,148,148,148,148,148,148,148,148,147,147,147,147,147,147,147,147,147,147,147,147,147,147,147,147,147,147,147,147,147,147,147,147,147,147,147,148,148,148,148,148,148,148,148,149,149,149,149,149,149,255,255,255,255,255,141,141,141,141,141,146,146,146,146,146,146,146,146,146,146,146,146,147,147,147,147,147,147,147,147,147,147,147,147,148,148,148,148,148,148,148,148,148,148,148,148,148,148,149,149,149,149,150,150,150,150,150,150,255,255,255,255,255,255,255,255,255,255,255,255,255,255,255,255,255,255,255,255
255,255,255,255,243,243,255,255,255,255,255,255,255,255,255,255,255,255,255,255,242,242,242,242,242,242,242,255,255,255,255,255,255,255,255,255,255,255,255,255,255,255,255,255,255,255,255,255,255,255,255,255,255,255,255,255,255,255,255,255,255,255,255,255,243,243,243,243,243,243,243,243,243,243,243,243,243,243,243,243,243,243,243,243,243,243,244,243,243,244,244,244,244,244,244,244,244,244,244,244,255,255,255,255,255,255,255,255,244,244,244,244,244,244,244,244,244,244,244,244,244,244,245,244,244,244,244,244,244,244,244,244,244,244,244,245,245,245,244,244,244,255,255,255,255,255,255,255,255,255,255,255,255,255,255,255,255,255,255,255,255,255,255,255,255,255,255,255,255,255,255,255,255,255,255,255,255,255,255,193,193,193,193,193,193,193,193,193,193,194,194,194,193,193,193,192,192,192,192,192,192,192,192,192,192,192,192,192,192,192,192,192,192,193,193,193,193,193,193,193,193,193,193,193,194,194,194,194,194,194,194,194,194,195,195,195,255,255,255,255,255,255,255,255,255,255,255,255,255,255,242,242,242,242,242,242,242,242,242,242,242,242,242,242,241,241,242,242,242,242,242,242,242,233,233,233,233,233,233,233,233,233,233,233,233,233,241,241,241,242,242,241,242,242,241,241,241,241,241,241,241,241,241,241,241,241,241,241,241,241,241,241,241,241,241,241,241,241,241,241,240,240,240,239,239,239,239,239,239,239,239,239,239,239,239,240,240,240,240,240,240,240,239,239,239,239,238,238,239,239,239,239,239,239,239,239,239,239,239,239,239,239,239,239,239,238,238,238,238,238,238,238,238,238,238,238,238,238,238,238,238,238,238,238,255,255,255,255,255,255,255,255,255,255,255,255,255,255,255,255,255,255,255,255,255,255,255,255,255,255,255,255,255,255,255,255,255,255,255,255,165,165,165,165,165,166,166,166,167,167,167,167,167,167,167,255,255,255,255,255,255,255,255,255,255,160,160,160,255,255,255,255,255,255,255,255,157,157,156,156,156,156,156,156,156,156,156,155,155,155,155,155,255,255,150,150,150,150,149,149,149,149,149,149,149,149,149,149,149,150,150,150,150,150,150,150,150,150,150,150,150,150,150,149,149,149,149,149,149,149,148,148,148,148,148,148,148,148,148,148,148,147,147,147,147,147,147,147,147,147,147,147,147,147,147,147,147,147,147,147,147,147,147,147,147,147,147,147,148,148,148,148,148,148,148,148,149,149,149,149,149,255,255,255,255,255,255,255,141,141,141,141,141,146,146,146,146,146,146,146,146,146,146,146,146,147,147,147,147,147,147,147,147,147,147,147,148,148,148,148,148,148,148,148,148,148,148,148,148,148,149,149,149,149,149,150,150,150,150,150,150,255,255,255,255,255,255,255,255,255,255,255,255,255,255,255,255,255,255,255
255,255,255,255,255,255,255,255,255,255,255,255,255,255,255,255,255,255,255,255,255,255,242,242,242,242,242,255,255,255,255,255,255,255,255,255,255,255,255,255,255,255,255,255,255,255,255,255,255,255,255,255,255,255,255,255,255,255,255,255,255,255,255,243,243,243,243,243,243,243,243,243,243,243,243,243,243,243,243,243,243,243,243,243,243,243,244,243,244,244,244,244,244,244,244,244,244,244,244,255,255,255,255,255,255,255,255,255,244,244,244,244,244,244,244,244,244,244,244,244,245,245,245,245,245,245,244,244,244,244,244,244,244,244,244,245,245,245,244,244,255,255,255,255,255,255,255,255,255,255,255,255,255,255,255,255,255,255,255,255,255,255,255,255,255,255,255,255,255,255,255,255,255,255,255,255,255,255,255,193,193,193,193,193,193,193,193,193,193,193,193,193,193,193,193,192,192,192,192,192,192,192,192,192,192,192,192,192,192,192,192,192,192,192,193,193,193,193,193,193,193,193,193,193,194,194,194,194,194,194,194,194,194,194,194,255,255,255,255,255,255,255,255,255,255,255,255,255,255,255,242,242,242,242,242,242,242,242,242,242,242,242,242,242,242,242,242,242,242,242,242,233,233,233,233,233,233,233,233,233,233,233,234,234,234,234,234,234,241,242,242,242,242,242,242,242,241,241,241,241,241,241,241,241,241,241,241,241,241,241,241,241,241,241,241,241,241,241,241,240,240,240,240,240,239,239,239,239,239,239,239,239,239,239,239,240,240,240,240,240,240,240,239,239,239,239,239,238,239,239,239,239,239,239,239,239,239,239,239,239,239,239,239,239,239,238,238,238,238,238,238,238,238,238,238,238,238,238,238,238,238,238,238,238,255,255,255,255,255,255,255,255,255,255,255,255,255,255,255,255,255,255,255,255,255,255,255,255,255,255,255,255,255,255,255,255,255,255,255,255,165,165,165,165,165,166,166,166,167,167,167,167,167,167,167,255,255,255,255,255,255,255,255,255,255,160,160,160,160,255,255,255,255,255,255,255,255,157,157,156,156,156,156,156,156,155,155,155,155,155,155,155,155,255,150,150,150,150,149,149,149,149,149,149,149,149,149,149,149,149,150,150,150,150,150,150,150,150,150,150,150,150,150,149,149,149,149,149,149,149,149,149,148,148,148,148,148,148,148,148,148,147,147,147,147,147,147,147,147,147,147,147,147,147,147,147,147,147,147,147,147,147,147,147,147,147,147,147,148,148,148,148,148,148,148,149,149,149,149,149,149,149,255,255,255,255,255,255,255,141,141,141,141,146,146,146,146,146,146,146,146,146,146,146,146,146,147,147,147,147,147,147,147,147,147,147,148,148,148,148,148,148,148,148,148,148,148,148,148,148,148,149,149,149,149,150,149,150,150,150,150,150,255,255,255,255,255,255,255,255,255,255,255,255,255,255,255,255,255,255
255,255,255,255,255,255,255,255,255,255,255,255,255,255,255,255,255,255,255,255,255,255,242,242,242,242,255,255,255,255,255,255,255,255,255,255,255,255,255,255,255,255,255,255,255,255,255,255,255,255,255,255,255,255,255,255,255,255,255,255,255,255,255,255,255,243,243,243,243,243,243,243,243,243,243,243,243,243,243,243,243,243,243,243,243,243,244,244,244,244,244,244,244,244,244,244,244,244,244,244,255,255,255,255,255,255,255,245,245,244,244,244,244,245,245,244,244,245,245,245,245,245,245,245,245,245,245,245,245,245,245,245,245,245,245,245,245,245,245,244,255,255,255,255,255,255,255,255,255,255,255,255,255,255,255,255,255,255,255,255,255,255,255,255,255,255,255,255,255,255,255,255,255,255,255,255,255,255,193,193,193,193,193,193,193,193,193,193,193,193,193,193,193,193,192,192,192,192,192,192,192,192,192,192,192,192,192,192,192,192,192,192,192,192,192,192,193,193,193,193,193,193,193,193,194,194,194,194,194,194,194,194,194,255,255,255,255,255,255,195,195,255,255,255,255,255,255,255,255,255,242,242,242,242,242,242,242,242,242,242,242,242,242,242,242,242,242,242,242,242,233,233,233,233,233,233,233,233,233,233,233,233,234,234,234,234,234,234,234,235,242,242,242,242,242,242,242,241,241,241,241,241,241,241,241,241,241,241,241,241,241,241,241,241,241,241,241,241,241,241,240,240,240,240,239,239,239,239,239,239,238,238,239,239,239,239,240,240,240,240,240,240,239,239,239,239,239,239,238,239,239,239,239,239,239,239,239,239,239,239,239,239,239,239,239,238,238,238,238,238,238,238,238,238,238,238,238,238,238,238,238,238,238,238,255,255,255,255,255,255,255,255,255,255,255,255,255,255,255,255,255,255,255,255,255,255,255,255,255,255,255,255,255,255,255,255,255,255,255,255,165,165,166,166,166,166,166,166,167,167,167,167,167,167,167,255,255,255,255,255,255,255,255,255,255,255,255,160,255,255,255,255,255,255,255,255,255,157,157,156,156,156,156,156,156,155,155,155,155,155,155,155,155,255,150,149,150,150,149,149,149,149,149,149,149,149,149,149,149,149,149,149,150,150,150,150,150,150,150,150,150,150,150,149,149,149,149,149,149,149,149,149,149,148,148,148,148,148,148,148,148,147,147,147,147,147,147,147,147,147,147,147,147,147,147,147,147,147,147,147,147,147,147,147,147,147,147,147,148,148,148,148,148,148,148,148,149,149,149,149,149,149,150,255,255,255,255,255,255,141,141,141,141,141,141,146,146,146,146,146,146,146,146,146,146,146,147,147,147,147,147,147,147,147,147,147,148,148,148,148,148,148,148,148,148,148,148,148,148,148,148,149,149,149,149,149,149,149,150,150,150,150,255,255,255,255,255,255,255,255,255,255,255,255,255,255,255,255,255,255
255,255,255,255,255,255,255,255,255,255,255,255,255,255,255,255,255,255,255,255,255,255,255,255,255,255,255,255,255,255,255,255,255,255,255,255,255,255,255,255,255,245,245,245,245,245,255,255,255,255,255,255,255,255,255,255,255,255,255,255,255,255,255,255,255,255,255,243,243,243,255,255,243,243,243,243,243,243,243,243,243,243,244,243,244,244,244,244,244,244,244,244,244,244,244,244,244,244,244,244,255,255,255,255,255,255,255,245,245,245,244,244,245,245,245,245,245,245,245,245,245,245,245,245,245,245,245,245,245,245,245,245,245,245,245,245,245,245,245,255,255,255,255,255,255,255,255,255,255,255,255,255,255,255,255,255,255,255,255,255,255,255,255,255,255,255,255,255,255,255,255,255,255,255,255,255,255,255,193,193,193,193,193,193,193,193,193,193,193,193,193,193,193,193,193,192,192,192,192,192,192,192,192,192,192,192,192,192,192,192,192,192,192,192,192,192,192,193,193,193,193,193,193,193,194,194,194,194,194,194,194,194,255,255,194,255,255,255,195,195,195,195,255,255,255,255,255,255,255,255,242,242,242,242,242,242,242,242,242,242,242,242,242,242,242,242,242,242,242,242,233,233,233,233,233,233,233,233,233,233,233,233,234,234,234,234,234,234,234,235,235,235,235,242,242,242,242,241,241,241,241,241,241,241,241,241,241,241,241,241,241,241,241,241,241,241,241,241,241,240,240,240,240,240,239,239,239,239,239,238,238,238,238,239,239,239,240,240,240,240,240,240,240,239,239,239,239,239,239,239,239,239,239,239,239,239,239,239,239,239,239,239,239,239,239,238,238,238,238,238,238,238,238,238,238,238,238,238,238,238,238,238,238,238,255,255,255,255,255,255,255,255,255,255,255,255,255,255,255,255,255,255,255,255,255,255,255,255,255,255,255,255,255,255,255,255,255,255,255,255,255,165,166,166,166,166,166,166,167,167,167,167,167,167,255,255,255,255,255,255,255,255,255,255,255,255,160,160,255,255,255,255,255,255,255,255,255,157,157,156,156,156,156,156,156,155,155,155,155,155,155,155,155,150,150,150,150,150,149,149,149,149,149,149,149,149,149,149,149,149,149,149,149,149,150,150,150,150,150,150,150,150,149,149,149,149,149,149,149,149,148,148,148,148,148,148,148,148,148,148,148,147,147,147,147,147,147,147,147,147,147,147,147,147,147,147,147,147,147,147,147,147,147,147,147,147,147,147,148,148,148,148,148,148,148,148,149,149,149,149,149,149,150,150,255,255,255,255,255,141,141,141,141,141,141,141,146,146,146,146,146,146,146,146,146,146,147,147,147,147,147,147,147,147,147,147,147,148,148,148,148,148,148,148,148,148,148,148,148,148,148,149,149,149,149,149,149,149,150,150,150,150,150,255,255,255,255,255,255,255,255,255,255,255,255,255,255,255,255,255
255,255,255,255,255,255,255,255,255,255,255,255,255,255,255,255,255,255,255,255,255,255,255,255,255,255,255,255,255,255,255,255,255,255,255,255,255,255,255,255,245,245,245,245,245,245,245,245,255,255,255,255,255,255,255,255,255,255,255,255,255,255,255,255,255,255,255,255,255,255,255,255,255,243,243,243,243,243,243,243,243,243,243,243,243,244,244,244,244,244,244,244,244,244,244,244,244,244,244,244,255,255,255,255,255,255,245,245,245,245,245,245,245,245,245,245,245,245,245,245,245,245,245,245,245,245,245,245,245,245,245,245,245,245,245,245,245,245,255,255,255,255,255,255,255,255,255,255,255,255,255,255,255,255,255,255,255,255,255,255,255,255,255,255,255,255,255,255,255,255,255,255,255,255,255,255,255,194,193,193,193,193,193,193,193,193,193,193,193,193,193,193,193,193,192,192,192,192,192,192,192,192,192,192,192,192,192,192,192,192,192,192,192,192,192,192,192,192,193,193,193,193,193,193,194,194,194,194,194,194,194,194,194,194,194,195,195,195,195,195,195,195,255,255,255,255,255,255,255,255,242,242,242,242,242,242,242,242,242,242,242,242,242,242,242,242,242,242,242,242,233,233,233,233,233,233,233,233,233,233,234,234,234,234,234,234,234,234,234,235,235,235,235,235,242,242,242,241,241,242,241,241,241,241,241,241,241,241,241,241,241,241,241,241,241,241,241,241,241,240,240,240,240,240,239,239,239,239,239,238,238,238,238,239,239,239,240,240,240,240,240,240,240,240,239,239,239,239,239,239,239,239,239,239,239,239,239,239,239,239,239,239,239,239,239,239,238,238,238,238,238,238,238,238,238,238,238,238,238,238,238,238,238,238,238,255,255,255,255,255,255,255,255,255,255,255,255,255,255,255,255,255,255,255,255,255,255,255,255,255,255,255,255,255,255,255,255,255,255,255,255,166,166,166,166,166,166,166,167,167,167,167,167,255,255,255,255,255,255,255,255,255,255,255,255,255,255,160,255,255,255,255,255,255,255,255,255,255,156,156,156,156,156,156,156,155,155,155,155,155,155,155,155,155,150,150,150,149,149,149,149,149,149,149,149,149,149,149,149,149,149,149,149,149,149,150,150,150,150,150,149,149,149,149,149,149,149,149,149,149,148,148,148,148,148,148,148,148,148,148,148,147,147,147,147,147,147,147,147,147,147,147,147,147,147,147,147,147,147,147,147,147,147,147,147,147,147,147,147,148,147,148,148,148,148,149,149,149,149,149,149,150,150,150,150,255,255,255,255,141,141,141,141,141,141,141,146,146,146,146,146,146,146,146,146,146,147,147,147,147,147,147,147,147,147,147,147,147,148,148,148,148,148,148,148,148,148,148,148,148,148,148,149,149,149,149,149,149,150,150,150,150,150,150,150,255,255,255,255,255,255,255,255,255,255,255,255,255,255,255
255,255,255,255,255,255,255,255,255,255,255,255,255,255,255,255,255,255,255,255,255,255,255,255,255,255,255,255,255,255,255,255,255,255,255,255,255,255,255,255,245,245,245,245,245,245,245,245,245,255,255,255,255,255,255,255,255,255,255,255,255,255,255,255,255,255,255,255,255,255,255,255,255,243,243,243,243,243,243,243,243,243,243,243,243,243,244,244,244,244,244,244,244,244,244,244,244,244,244,244,244,255,255,255,255,255,245,245,245,245,245,245,245,245,245,245,245,245,245,245,245,245,245,245,245,245,245,245,245,245,245,245,245,245,245,245,245,245,255,255,255,255,255,255,255,255,255,255,255,255,255,255,255,255,255,255,255,255,255,255,255,255,255,255,255,255,255,255,255,255,255,255,255,255,255,255,255,193,193,193,193,193,193,193,193,193,193,193,193,193,193,193,193,192,192,192,192,192,192,192,192,192,192,192,192,192,192,192,192,192,192,192,192,192,192,192,192,192,193,193,193,193,193,193,194,194,194,194,194,194,194,194,255,195,195,195,195,195,195,195,195,195,255,255,255,255,255,255,255,243,242,242,242,242,242,242,242,242,242,242,242,242,242,242,242,242,242,242,242,233,233,233,233,233,233,233,233,233,233,233,234,234,234,234,234,234,234,234,234,235,235,235,235,235,235,235,242,241,241,242,242,241,241,241,241,241,241,241,241,241,241,241,241,241,241,241,241,241,241,240,240,240,240,240,239,239,239,239,238,238,238,238,238,239,239,239,240,240,240,240,240,240,240,240,239,239,239,239,239,239,239,239,239,239,239,239,239,239,239,239,239,239,239,239,239,239,238,238,238,238,238,238,238,238,238,238,238,238,238,238,238,238,238,238,238,255,255,255,255,255,255,255,255,255,255,255,255,255,255,255,255,255,255,255,255,255,255,255,255,255,255,255,255,255,255,255,255,255,255,255,255,166,166,166,166,166,166,166,166,166,167,167,167,255,255,255,255,255,255,255,255,255,255,255,255,255,255,255,255,255,255,255,255,255,255,255,255,255,156,156,156,156,156,156,155,155,155,155,155,155,155,155,155,255,255,148,149,149,148,149,148,149,149,149,149,149,149,149,149,149,149,149,149,149,149,149,149,149,149,149,149,149,149,149,149,149,149,149,149,149,148,148,148,148,148,148,148,148,148,148,148,148,147,147,147,147,147,147,147,147,147,147,147,147,147,147,147,147,147,147,147,147,147,147,147,147,147,147,147,148,148,148,148,148,148,148,149,149,149,149,150,150,150,150,150,150,255,255,255,255,141,141,141,141,141,141,141,146,146,146,146,146,146,146,146,146,146,147,147,147,147,147,147,147,147,147,147,147,148,148,148,148,148,148,148,148,148,148,148,148,148,149,149,149,149,149,149,149,149,150,150,150,150,150,150,255,255,255,255,255,255,255,255,255,255,255,255,255,255,255
255,255,255,255,255,255,255,255,255,255,255,255,255,255,255,255,255,255,255,255,255,255,255,255,255,255,255,255,255,255,255,255,255,255,255,255,255,255,255,255,245,245,245,245,245,245,245,245,245,245,255,255,255,255,255,255,255,255,255,255,255,255,255,255,255,255,255,255,255,255,255,255,255,255,255,255,243,243,243,255,255,255,255,255,255,255,244,244,244,244,244,244,244,244,244,244,244,244,244,244,255,255,255,255,255,255,255,245,245,245,245,245,245,245,245,245,245,245,245,245,245,245,245,245,245,245,245,245,245,245,245,245,245,245,245,245,245,245,255,255,255,255,255,255,255,255,255,255,255,255,255,255,255,255,255,255,255,255,255,255,255,255,255,255,255,255,255,255,255,255,255,255,255,255,255,255,255,193,193,193,193,193,193,193,193,193,193,193,193,193,193,193,193,192,192,192,192,192,192,192,192,192,192,192,192,192,192,192,192,192,192,192,192,192,192,192,192,192,192,193,193,193,193,193,194,194,194,194,194,194,194,194,255,195,195,195,195,195,195,195,195,195,255,255,195,255,255,255,255,243,242,242,243,242,242,242,242,242,243,243,242,242,242,242,242,242,242,242,233,233,233,233,233,233,233,233,233,233,233,233,234,234,234,234,234,234,234,234,234,235,235,235,235,235,235,235,235,235,242,242,242,241,241,241,241,241,241,241,241,241,241,241,241,241,241,241,241,241,241,240,240,240,240,240,239,239,239,239,238,238,238,238,238,239,239,240,240,240,240,240,240,240,240,240,239,239,239,239,239,239,239,239,239,239,239,239,239,239,239,239,239,239,239,239,239,239,239,238,238,238,238,238,238,238,238,238,238,238,238,238,238,238,238,238,238,255,255,255,255,255,255,255,255,255,255,255,255,255,255,255,255,255,255,255,255,255,255,255,255,255,255,255,255,255,255,255,255,255,255,255,255,166,166,166,166,166,166,166,167,166,167,167,255,255,255,255,255,255,255,255,255,255,255,255,255,255,255,255,255,255,255,255,255,255,255,255,255,255,156,156,156,156,156,156,155,155,155,155,155,155,155,155,155,255,148,148,148,148,148,148,148,148,149,149,149,149,149,149,149,149,149,149,149,149,149,149,149,149,149,149,149,149,149,149,149,149,149,149,148,148,148,148,148,148,148,148,148,148,148,148,148,147,147,147,147,147,147,147,147,147,147,147,147,147,147,147,147,147,147,147,147,147,147,147,147,147,147,147,147,148,148,148,148,148,148,148,149,149,150,150,150,150,150,150,150,150,255,255,255,255,142,141,141,141,141,141,141,146,146,146,146,146,146,146,146,146,146,147,147,147,147,147,147,147,147,147,147,147,148,148,148,148,148,148,148,148,148,148,148,148,148,149,149,149,149,149,149,149,149,150,150,150,150,150,150,150,255,255,255,255,255,255,255,255,255,255,255,255,255,255
255,255,255,255,255,255,255,255,255,255,255,255,255,255,255,255,255,255,255,255,255,255,255,255,255,255,255,255,255,255,255,255,255,255,255,255,255,255,255,255,245,245,245,245,245,245,245,245,246,245,255,255,255,255,255,255,255,255,255,255,255,255,255,255,255,255,255,255,255,255,255,255,255,255,255,255,255,255,255,255,255,255,255,255,255,255,255,255,255,255,255,255,244,244,244,244,244,244,244,244,244,255,255,255,255,255,255,255,255,245,255,255,255,255,245,245,245,245,245,245,245,245,245,245,245,245,245,245,245,245,245,245,245,245,245,246,245,255,255,255,255,255,255,255,255,255,255,255,255,255,255,255,255,255,255,255,255,255,255,255,255,255,255,255,255,255,255,255,255,255,255,255,255,255,255,255,193,193,193,193,193,193,193,193,193,193,192,192,193,193,193,193,193,192,192,192,192,192,191,192,192,192,192,192,192,192,192,192,192,192,192,192,192,192,192,192,192,192,192,192,193,193,193,193,194,194,194,194,194,194,194,194,255,195,195,195,195,195,195,195,195,195,195,195,195,195,255,255,255,243,242,242,243,243,243,243,243,243,243,243,243,242,242,242,242,242,242,233,233,233,233,233,233,233,233,233,233,233,233,234,234,234,234,234,234,234,234,234,234,235,235,235,235,235,235,235,235,235,235,242,242,241,241,241,241,241,241,241,241,241,241,241,241,241,241,241,241,241,240,240,240,240,240,239,239,239,239,239,239,238,238,238,239,239,239,240,240,240,240,240,240,240,240,239,239,239,239,239,239,239,239,239,239,239,239,239,239,239,239,239,239,239,239,239,239,239,238,238,238,238,238,238,238,238,238,238,238,238,238,238,238,238,238,238,238,255,255,255,255,255,255,255,255,255,255,255,255,255,255,255,255,255,255,255,255,255,255,255,255,255,255,255,255,255,255,255,255,255,255,255,255,166,166,166,166,166,166,166,166,166,167,255,255,255,255,255,255,255,255,255,255,255,255,255,255,255,255,255,255,255,255,255,255,255,255,255,255,255,156,156,156,156,156,156,155,155,155,155,155,155,155,155,155,148,148,148,148,148,148,148,148,148,148,148,148,149,149,149,149,149,149,149,149,149,149,149,149,149,149,149,149,149,149,149,149,149,149,149,148,148,148,148,148,148,148,148,148,148,148,148,148,148,147,147,147,147,147,147,147,147,147,147,147,147,147,147,147,147,147,147,147,147,147,147,147,147,147,147,147,148,148,148,148,148,148,148,149,149,150,150,150,150,150,150,150,150,255,255,255,255,255,141,141,141,141,141,141,141,146,146,146,146,146,146,146,146,146,147,147,147,147,147,147,147,147,147,147,147,148,148,148,148,148,148,148,148,148,148,148,148,148,148,149,149,149,149,149,149,149,149,149,150,150,150,150,150,255,255,255,255,255,255,255,255,255,255,255,255,255,255
255,255,255,255,255,255,255,255,255,255,255,255,255,255,255,255,255,255,255,255,255,255,255,255,255,255,255,246,246,246,255,255,255,255,255,255,255,255,255,255,245,245,246,245,246,246,246,246,246,246,255,255,255,255,255,255,255,255,255,255,255,255,246,255,246,255,246,255,255,255,255,255,255,255,255,255,255,255,255,255,255,255,255,255,255,255,255,255,255,255,255,255,255,244,244,244,244,244,244,244,244,255,255,255,255,255,255,255,255,255,255,255,255,255,255,245,245,245,245,245,245,245,245,245,245,245,245,245,245,245,245,245,245,246,246,246,255,255,255,255,255,255,255,255,255,255,255,255,255,255,255,255,255,255,255,255,255,255,255,255,255,255,255,255,255,255,255,255,255,255,255,255,255,255,255,255,193,193,193,193,193,192,192,192,192,192,192,192,192,193,193,192,193,192,192,192,192,192,191,191,192,191,191,192,192,192,192,192,192,192,192,192,192,192,192,192,192,192,192,192,193,193,193,193,193,194,194,194,194,194,194,194,194,194,194,194,195,195,195,195,195,195,195,195,195,195,255,255,255,255,243,243,243,243,243,243,243,243,243,243,243,243,242,242,242,242,242,242,233,233,233,233,233,233,233,233,233,233,234,234,234,234,234,234,234,234,234,234,234,235,235,235,235,235,235,235,235,235,235,236,236,236,236,241,241,241,241,241,241,241,241,241,241,241,241,241,241,241,240,240,240,240,240,239,239,239,239,239,239,238,238,238,239,239,239,240,240,240,240,240,240,240,240,239,239,239,239,239,239,239,239,239,239,239,239,239,239,239,239,239,239,239,239,239,239,239,239,238,238,238,238,238,238,238,238,238,238,238,238,238,238,238,238,238,238,255,255,255,255,255,255,255,255,255,255,255,255,255,255,255,255,255,255,255,255,255,255,255,255,255,255,255,255,255,255,255,255,255,255,255,255,166,166,166,166,166,166,166,167,166,167,255,255,255,255,255,255,255,255,255,255,255,255,255,255,255,255,255,255,255,255,255,255,255,255,255,255,255,157,157,156,156,156,156,155,155,155,155,155,155,155,155,155,148,148,148,148,148,148,148,148,148,148,148,148,148,149,148,149,149,149,149,149,149,149,149,149,149,149,149,149,149,149,149,149,149,149,148,148,148,148,148,148,148,148,148,148,148,148,147,148,147,147,147,147,147,147,147,147,147,147,147,147,147,147,147,147,147,147,147,147,147,147,147,147,147,147,147,147,148,148,148,148,148,148,149,149,149,149,150,150,150,150,150,150,150,150,255,255,255,255,255,141,141,141,141,141,141,146,146,146,146,146,146,146,146,146,147,147,147,147,147,147,147,147,147,147,147,147,148,148,148,148,148,148,148,148,148,148,148,148,148,149,149,149,149,149,149,149,149,149,149,150,150,150,150,255,255,255,255,255,255,255,255,255,255,255,255,255,255
255,255,255,255,255,255,255,255,255,255,255,255,255,255,255,255,255,255,255,255,255,255,255,255,255,246,246,246,246,246,255,255,255,255,255,255,255,255,255,255,246,246,246,246,246,246,246,246,246,246,246,246,255,255,255,255,255,255,255,255,246,246,246,246,246,246,246,246,246,246,246,255,255,255,255,255,255,255,255,255,255,255,255,255,255,255,255,255,255,255,255,255,255,255,255,255,244,244,244,244,255,255,255,255,255,255,255,255,255,255,255,255,255,255,255,255,255,245,245,245,245,245,245,245,246,246,246,246,245,246,246,246,246,246,246,246,255,255,255,255,255,255,255,255,255,255,255,255,255,255,255,255,255,255,255,255,255,255,255,255,255,255,255,255,255,255,255,255,255,255,255,255,193,193,193,193,193,193,193,193,193,192,192,192,192,192,192,192,192,192,193,192,192,192,192,192,191,191,191,191,191,191,191,192,192,192,192,192,192,192,192,192,192,192,192,192,192,192,192,192,192,193,193,193,193,193,193,193,193,194,194,194,194,194,195,195,195,195,195,195,195,195,255,195,255,255,255,255,255,243,243,243,243,243,243,243,243,243,243,243,243,243,242,242,242,242,242,242,242,233,233,233,233,233,233,233,233,233,233,234,234,234,234,234,234,234,234,234,234,235,235,235,235,235,235,235,235,235,235,236,236,236,236,236,236,236,241,241,241,241,241,241,241,241,241,241,241,241,240,240,240,240,240,240,239,239,239,239,238,238,238,238,239,239,239,240,240,240,240,240,240,240,240,239,239,239,239,239,239,239,239,239,239,239,239,239,239,239,239,239,239,239,239,239,239,239,239,238,238,238,238,238,238,238,238,238,238,238,238,238,238,238,238,238,238,238,255,255,255,255,255,255,255,255,255,255,255,255,255,255,255,255,255,255,255,255,255,255,255,255,255,255,255,255,255,255,255,255,255,255,255,166,166,166,166,166,166,167,167,167,167,255,255,255,255,255,255,255,255,255,255,255,255,255,255,255,255,255,255,255,255,255,255,255,255,255,255,157,157,157,156,156,156,156,156,155,155,155,155,155,155,155,149,148,148,148,148,148,148,148,148,148,148,148,148,148,148,148,148,148,148,148,149,149,149,149,149,149,149,149,149,149,149,149,149,149,149,149,148,148,148,148,148,148,148,148,148,148,148,147,148,147,147,147,147,147,147,147,147,147,147,147,147,147,147,147,147,147,147,147,147,147,147,147,147,147,147,147,147,148,148,148,148,148,149,149,149,149,149,150,150,150,150,150,150,150,150,255,255,255,255,255,141,141,141,141,141,141,141,146,146,145,146,146,146,146,146,147,147,147,147,147,147,147,147,147,147,147,147,148,148,148,148,148,148,148,148,148,148,148,148,148,148,149,149,149,149,149,149,149,149,149,149,150,150,150,255,255,255,255,255,255,255,255,255,255,255,255,255,255
255,255,255,255,255,255,255,255,255,255,255,255,255,255,255,255,255,255,255,255,246,246,246,246,246,246,246,246,246,246,246,255,255,255,255,255,255,255,255,255,246,246,246,246,246,246,246,246,246,246,246,246,255,255,255,255,255,255,255,246,246,246,246,246,246,246,246,246,246,246,246,246,255,246,255,255,255,255,255,255,255,255,255,255,255,255,255,255,255,255,255,255,255,255,255,255,255,255,255,255,255,255,255,255,255,255,255,255,255,255,255,255,255,255,255,255,255,255,255,255,255,255,255,255,255,246,246,246,246,246,246,246,246,246,246,246,255,255,255,255,255,255,255,255,255,255,255,255,255,255,255,255,255,255,255,255,255,255,255,255,255,255,255,255,255,255,255,255,255,255,255,255,193,193,193,192,193,193,192,192,192,192,192,192,192,192,192,192,192,192,192,192,192,192,192,191,191,191,191,191,191,191,191,191,192,192,191,192,192,192,192,192,192,192,192,192,192,192,192,192,192,192,192,193,193,193,193,193,193,194,194,194,194,194,194,194,195,195,195,195,195,255,255,255,255,255,255,255,255,243,243,243,243,243,243,243,243,243,243,243,243,243,243,243,243,243,242,242,233,233,233,233,233,233,233,233,233,233,234,234,234,234,234,234,234,234,234,234,234,235,235,235,235,235,235,235,235,235,235,236,236,236,236,236,236,236,236,236,236,241,241,241,241,241,241,241,241,241,241,240,240,240,240,239,239,239,239,239,238,238,238,239,239,239,239,240,240,240,240,240,240,240,239,239,239,239,239,239,239,239,239,239,239,239,239,239,239,239,239,239,239,239,239,239,239,239,238,238,238,238,238,238,238,238,238,238,238,238,238,238,238,238,238,238,238,238,255,255,255,255,255,255,255,255,255,255,255,255,255,255,255,255,255,255,255,255,255,255,255,255,255,255,255,255,255,255,255,255,255,255,255,255,166,166,167,167,167,167,167,167,167,255,255,255,255,255,255,255,255,255,255,255,255,255,255,255,255,255,255,255,255,255,255,255,255,255,255,157,157,157,157,156,156,156,156,155,155,155,155,155,155,155,148,148,148,148,148,148,148,148,148,148,148,148,148,148,148,148,148,148,148,148,149,149,149,149,149,149,149,149,149,149,149,149,149,149,149,149,149,148,148,148,148,148,148,148,148,148,148,148,148,147,147,147,147,147,147,147,147,147,147,147,147,147,147,147,147,147,147,147,147,147,147,147,147,147,147,147,147,148,148,148,148,148,149,149,149,149,149,150,150,150,150,150,150,150,151,255,255,255,255,255,141,141,141,141,141,141,141,146,145,145,146,146,146,146,146,147,147,147,147,147,147,147,147,147,147,147,147,148,148,148,148,148,148,148,148,148,148,148,148,148,148,148,149,149,149,149,149,149,149,149,150,150,150,150,255,255,255,255,255,255,255,255,255,255,255,255,255,255
