629,629,629,628,628,628,628,628,628,629,629,629,630,631,631,631,631,631,632,632,632,633,633,633,632,632,632,632,632,632,632,632,633,633,633,633,633,633,633,633,634,634,634,635,635,635,635,635,635,636,636,636,638,638,638,638,639,639,640,640,640,641,641,643,644,644,645,646,647,647,648,650,651,652,652,653,654,655,656,657,658,659,660,662,663,663,664,665,667,670,675,675,676,677,679,679,680,681,681,681,682,682,682,682,683,684,684,686,687,687,688,688,692,692,692,692,873,873,872,872,872,872,872,872,873,872,872,872,872,871,871,871,871,871,872,871,872,871,872,872,871,872,872,872,872,872,872,872,872,872,872,872,872,872,871,871,871,871,872,873,873,873,873,873,873,873,872,872,872,872,2047,2047,2047,2047,2047,2047,2047,2047,2047,2047,2047,2047,2047,2047,2047,2047,2047,2047,2047,2047,2047,2047,2047,2047,2047,2047,2047,2047,2047,2047,2047,2047,2047,2047,2047,2047,2047,2047,2047,2047,2047,2047,2047,2047,2047,2047,2047,2047,2047,2047,2047,2047,2047,2047,2047,2047,2047,2047,2047,2047,2047,2047,2047,2047,2047,2047,2047,2047,2047,2047,2047,2047,2047,2047,2047,2047,2047,2047,2047,2047,2047,2047,2047,2047,2047,2047,2047,2047,2047,2047,2047,2047,2047,2047,2047,2047,2047,2047,2047,2047,2047,2047,2047,2047,2047,2047,2047,2047,2047,2047,2047,2047,2047,2047,2047,2047,2047,2047,2047,2047,2047,2047,2047,2047,2047,2047,2047,2047,2047,2047,2047,2047,2047,2047,2047,2047,2047,2047,2047,2047,2047,2047,2047,2047,2047,2047,2047,2047,2047,2047,2047,2047,2047,2047,2047,2047,2047,2047,2047,2047,2047,2047,2047,2047,2047,2047,2047,2047,2047,2047,2047,2047,2047,2047,2047,2047,2047,2047,2047,2047,2047,2047,2047,2047,2047,2047,2047,2047,2047,2047,2047,2047,2047,2047,2047,2047,2047,2047,2047,2047,2047,2047,2047,2047,2047,2047,2047,2047,2047,2047,2047,2047,2047,2047,2047,2047,2047,2047,2047,2047,2047,2047,2047,2047,2047,2047,2047,2047,2047,2047,2047,2047,878,878,878,878,879,879,879,880,880,879,880,878,880,880,883,884,883,882,881,881,880,881,881,881,881,882,882,881,881,880,880,880,879,879,880,879,879,879,879,879,880,879,878,878,879,879,881,879,879,883,883,883,883,883,882,882,880,880,879,880,880,881,882,883,884,884,885,883,884,882,881,879,880,879,881,881,881,881,882,882,883,884,884,884,884,884,884,883,883,883,882,882,883,883,884,884,884,885,884,885,883,882,881,880,880,883,882,882,881,881,882,882,882,881,883,882,882,882,882,882,883,883,883,883,884,884,884,883,883,883,882,883,883,883,884,884,885,886,886,887,2047,2047,2047,2047,2047,2047,2047,2047,2047,2047,2047,2047,2047,2047,2047,2047,2047,2047,2047,2047,2047,2047,2047,2047,2047,2047,2047,2047,2047,2047,2047,2047,2047,2047,2047,2047,2047,939,939,938,939,939,939,939,939,939,939,940,939,938,938,938,882,882,2047,939,939,939,939,939,938,938,938,2047,2047,2047,2047,2047,2047,2047,879,879,881,881,879,878,878,878,877,877,875,874,873,873,872,872,872,2047,2047,2047,2047,2047,2047,2047,2047,2047,2047
629,629,629,628,628,628,628,629,629,630,629,630,630,631,631,631,631,631,632,632,632,632,633,633,632,632,632,632,632,632,632,632,632,633,633,633,633,632,633,633,633,633,633,634,634,634,633,634,633,634,634,633,633,636,637,637,638,639,639,640,640,640,640,642,643,644,645,646,646,647,647,649,650,651,651,652,653,654,655,657,658,659,660,661,662,663,664,665,666,666,675,676,676,677,679,680,681,681,682,682,682,683,683,682,684,684,685,686,687,688,688,688,689,692,692,693,872,871,872,872,872,872,872,872,873,872,872,872,872,872,872,871,871,871,871,871,871,871,872,872,872,872,872,872,872,872,872,873,872,872,872,872,872,872,872,871,871,871,872,873,873,873,873,872,872,873,873,872,872,872,2047,2047,2047,2047,2047,2047,2047,2047,2047,2047,2047,2047,2047,2047,2047,2047,2047,2047,2047,2047,2047,2047,2047,2047,2047,2047,2047,2047,2047,2047,2047,2047,2047,2047,2047,2047,2047,2047,2047,2047,2047,2047,2047,2047,2047,2047,2047,2047,2047,2047,2047,2047,2047,2047,2047,2047,2047,2047,2047,2047,2047,2047,2047,2047,2047,2047,2047,2047,2047,2047,2047,2047,2047,2047,2047,2047,2047,2047,2047,2047,2047,2047,2047,2047,2047,2047,2047,2047,2047,2047,2047,2047,2047,2047,2047,2047,2047,2047,2047,2047,2047,2047,2047,2047,2047,2047,2047,2047,2047,2047,2047,2047,2047,2047,2047,2047,2047,2047,2047,2047,2047,2047,2047,2047,2047,2047,2047,2047,2047,2047,2047,2047,2047,2047,2047,2047,2047,2047,2047,2047,2047,2047,2047,2047,2047,2047,2047,2047,2047,2047,2047,2047,2047,2047,2047,2047,2047,2047,2047,2047,2047,2047,2047,2047,2047,2047,2047,2047,2047,2047,2047,2047,2047,2047,2047,2047,2047,2047,2047,2047,2047,2047,2047,2047,2047,2047,2047,2047,2047,2047,2047,2047,2047,2047,2047,2047,2047,2047,2047,2047,2047,2047,2047,2047,2047,2047,2047,2047,2047,2047,2047,2047,2047,2047,2047,2047,2047,2047,2047,2047,2047,2047,2047,2047,2047,2047,2047,2047,2047,2047,2047,877,877,877,877,878,878,878,879,878,879,879,879,879,879,878,878,880,878,878,879,880,879,880,879,879,879,880,880,879,880,879,880,880,879,879,879,879,879,879,879,879,879,879,878,878,878,879,879,879,879,880,881,882,882,881,881,881,880,880,879,879,879,879,880,880,879,879,879,879,879,879,878,878,879,879,879,879,880,880,881,881,882,882,882,882,882,882,882,882,882,882,881,881,881,881,882,882,882,881,881,882,881,881,881,880,879,882,882,882,881,880,882,882,881,880,881,881,881,882,881,881,882,882,882,882,882,882,882,883,882,882,882,882,882,882,883,884,885,886,886,887,887,2047,2047,2047,2047,2047,2047,2047,2047,2047,2047,2047,2047,2047,2047,2047,2047,2047,2047,2047,2047,2047,2047,2047,2047,2047,2047,2047,2047,2047,2047,2047,2047,2047,2047,2047,2047,2047,938,938,938,938,939,938,939,939,939,940,940,940,883,883,2047,882,2047,2047,2047,938,938,938,938,880,880,2047,881,881,880,880,880,879,880,880,880,880,880,879,878,878,877,876,875,873,873,873,872,872,872,2047,2047,2047,2047,2047,2047,2047,2047,2047,2047
629,629,629,628,628,628,628,628,629,629,629,629,630,631,631,631,631,631,632,632,632,632,632,633,632,632,632,632,632,632,632,632,632,632,633,633,632,632,632,631,631,631,631,632,633,633,632,633,633,633,633,633,633,634,635,636,637,638,639,639,639,640,640,641,641,643,644,645,646,647,647,648,650,651,651,652,654,655,655,657,658,659,659,660,661,662,664,666,666,676,676,676,676,677,678,680,681,682,682,682,683,683,683,683,684,685,686,687,688,688,688,688,689,692,692,872,872,871,871,871,871,872,872,872,873,872,873,872,872,872,872,871,871,871,871,871,871,871,871,871,872,872,872,872,872,872,872,873,872,872,872,872,872,872,872,871,871,871,872,873,873,873,873,872,872,873,873,872,872,872,2047,2047,2047,2047,2047,2047,2047,2047,2047,2047,2047,2047,2047,2047,2047,2047,2047,2047,2047,2047,2047,2047,2047,2047,2047,2047,2047,2047,2047,2047,2047,2047,2047,2047,2047,2047,2047,2047,2047,2047,2047,2047,2047,2047,2047,2047,2047,2047,2047,2047,2047,2047,2047,2047,2047,2047,2047,2047,2047,2047,2047,2047,2047,2047,2047,2047,2047,2047,2047,2047,2047,2047,2047,2047,2047,2047,2047,2047,2047,2047,2047,2047,2047,2047,2047,2047,2047,2047,2047,2047,2047,2047,2047,2047,2047,2047,2047,2047,2047,2047,2047,2047,2047,2047,2047,2047,2047,2047,2047,2047,2047,2047,2047,2047,2047,2047,2047,2047,2047,2047,2047,2047,2047,2047,2047,2047,2047,2047,2047,2047,2047,2047,2047,2047,2047,2047,2047,2047,2047,2047,2047,2047,2047,2047,2047,2047,2047,2047,2047,2047,2047,2047,2047,2047,2047,2047,2047,2047,2047,2047,2047,2047,2047,2047,2047,2047,2047,2047,2047,2047,2047,2047,2047,2047,2047,2047,2047,2047,2047,2047,2047,2047,2047,2047,2047,2047,2047,2047,2047,2047,2047,2047,2047,2047,2047,2047,2047,2047,2047,2047,2047,2047,2047,2047,2047,2047,2047,2047,2047,2047,2047,2047,2047,2047,2047,2047,2047,2047,2047,2047,2047,2047,2047,2047,2047,2047,2047,2047,2047,2047,877,877,877,877,877,878,878,878,878,878,878,878,878,877,878,878,877,877,877,878,878,879,878,878,878,878,879,879,879,879,879,878,879,880,879,879,879,879,879,879,879,879,879,879,878,878,878,879,879,878,879,879,879,880,880,880,880,880,879,879,879,879,879,879,879,880,879,879,879,879,879,879,878,878,878,879,879,879,879,879,880,880,880,881,881,881,881,882,882,882,881,881,881,880,880,881,881,881,881,880,880,880,881,882,882,880,882,882,882,882,881,880,881,881,881,880,881,881,881,881,881,881,881,882,882,882,882,882,882,882,881,881,881,881,882,882,883,884,885,885,886,887,887,2047,2047,2047,2047,2047,2047,2047,2047,2047,2047,2047,2047,2047,2047,2047,2047,2047,2047,2047,2047,2047,2047,2047,2047,2047,2047,2047,2047,2047,2047,2047,2047,2047,2047,2047,2047,2047,2047,937,937,937,937,937,939,939,939,939,884,884,883,883,882,882,883,882,882,2047,880,881,2047,880,880,880,879,880,880,880,880,879,880,879,880,880,879,878,878,877,876,875,874,873,873,873,872,871,872,2047,2047,2047,2047,2047,2047,2047,2047,2047,2047
629,630,630,629,629,629,629,629,630,630,629,630,630,631,631,631,631,631,632,632,632,632,633,633,632,632,632,631,631,631,631,632,632,632,632,632,631,631,630,630,629,630,630,630,631,632,632,632,632,633,632,633,632,633,635,635,637,638,639,639,639,640,640,640,641,642,643,644,645,646,646,647,649,650,650,652,653,655,655,657,658,658,659,660,661,662,664,666,666,675,676,676,676,677,680,680,682,683,683,683,683,683,683,683,684,685,686,687,688,688,689,689,690,691,875,874,872,872,872,873,872,872,872,872,872,872,872,872,872,872,872,871,871,871,871,871,871,871,871,871,871,872,872,872,872,872,872,873,872,872,872,872,872,872,872,872,872,872,873,873,873,873,873,873,873,873,873,873,873,873,2047,2047,2047,2047,2047,2047,2047,2047,2047,2047,2047,2047,2047,2047,2047,2047,2047,2047,2047,2047,2047,2047,2047,2047,2047,2047,2047,2047,2047,2047,2047,2047,2047,2047,2047,2047,2047,2047,2047,2047,2047,2047,2047,2047,2047,2047,2047,2047,2047,2047,2047,2047,2047,2047,2047,2047,2047,2047,2047,2047,2047,2047,2047,2047,2047,2047,2047,2047,2047,2047,2047,2047,2047,2047,2047,2047,2047,2047,2047,2047,2047,2047,2047,2047,2047,2047,2047,2047,2047,2047,2047,2047,2047,2047,2047,2047,2047,2047,2047,2047,2047,2047,2047,2047,2047,2047,2047,2047,2047,2047,2047,2047,2047,2047,2047,2047,2047,2047,2047,2047,2047,2047,2047,2047,2047,2047,2047,2047,2047,2047,2047,2047,2047,2047,2047,2047,2047,2047,2047,2047,2047,2047,2047,2047,2047,2047,2047,2047,2047,2047,2047,2047,2047,2047,2047,2047,2047,2047,2047,2047,2047,2047,2047,2047,2047,2047,2047,2047,2047,2047,2047,2047,2047,2047,2047,2047,2047,2047,2047,2047,2047,2047,2047,2047,2047,2047,2047,2047,2047,2047,2047,2047,2047,2047,2047,2047,2047,2047,2047,2047,2047,2047,2047,2047,2047,2047,2047,2047,2047,2047,2047,2047,2047,2047,2047,2047,2047,2047,2047,2047,2047,2047,2047,2047,2047,2047,2047,2047,2047,2047,2047,877,877,877,877,878,878,878,878,878,878,878,878,877,878,877,877,877,877,878,878,878,878,878,878,878,878,879,879,878,879,878,879,880,879,879,880,879,879,880,879,879,880,879,879,879,879,879,878,878,879,879,879,879,879,880,880,880,879,879,879,879,879,879,879,879,879,879,879,879,878,878,878,878,878,878,879,879,879,878,879,879,880,880,881,881,881,881,881,880,880,880,880,880,880,880,880,881,881,881,881,881,881,882,881,882,882,882,882,882,882,881,882,882,882,881,881,881,881,881,881,881,881,882,881,882,882,882,881,881,881,881,882,882,882,882,883,884,885,886,886,887,887,2047,2047,2047,2047,2047,2047,2047,2047,2047,2047,2047,2047,2047,2047,2047,2047,2047,2047,2047,2047,2047,2047,2047,2047,2047,2047,2047,2047,2047,2047,2047,2047,2047,2047,2047,2047,2047,2047,2047,889,889,889,888,888,887,887,885,884,884,884,883,882,882,883,882,882,2047,880,881,881,881,879,879,880,880,880,879,880,880,880,880,880,880,879,878,877,877,876,875,874,874,874,874,873,872,872,2047,2047,2047,2047,2047,2047,2047,2047,2047,2047
630,630,630,629,629,630,630,630,631,631,630,630,631,631,631,631,631,631,632,632,632,632,632,632,632,631,631,631,631,631,631,631,632,632,632,632,631,630,629,629,629,629,629,629,630,631,631,632,632,632,632,632,632,633,635,635,636,638,639,639,639,639,640,640,640,642,642,644,645,645,645,646,648,650,650,652,653,654,655,656,658,658,659,660,660,662,663,666,666,675,676,676,676,677,680,680,682,683,683,683,683,684,684,684,684,686,686,687,688,689,689,689,690,691,874,873,872,871,872,872,872,872,872,872,872,872,872,872,872,872,872,871,871,871,871,871,871,872,872,871,872,872,872,872,872,872,872,872,872,872,871,872,872,872,872,872,872,872,873,873,873,873,873,873,872,873,873,873,873,873,2047,2047,2047,2047,2047,2047,2047,2047,2047,2047,2047,2047,2047,2047,2047,2047,2047,2047,2047,2047,2047,2047,2047,2047,2047,2047,2047,2047,2047,2047,2047,2047,2047,2047,2047,2047,2047,2047,2047,2047,2047,2047,2047,2047,2047,2047,2047,2047,2047,2047,2047,2047,2047,2047,2047,2047,2047,2047,2047,2047,2047,2047,2047,2047,2047,2047,2047,2047,2047,2047,2047,2047,2047,2047,2047,2047,2047,2047,2047,2047,2047,2047,2047,2047,2047,2047,2047,2047,2047,2047,2047,2047,2047,2047,2047,2047,2047,2047,2047,2047,2047,2047,2047,2047,2047,2047,2047,2047,2047,2047,2047,2047,2047,2047,2047,2047,2047,2047,2047,2047,2047,2047,2047,2047,2047,2047,2047,2047,2047,2047,2047,2047,2047,2047,2047,2047,2047,2047,2047,2047,2047,2047,2047,2047,2047,2047,2047,2047,2047,2047,2047,2047,2047,2047,2047,2047,2047,2047,2047,2047,2047,2047,2047,2047,2047,2047,2047,2047,2047,2047,2047,2047,2047,2047,2047,2047,2047,2047,2047,2047,2047,2047,2047,2047,2047,2047,2047,2047,2047,2047,2047,2047,2047,2047,2047,2047,2047,2047,2047,2047,2047,2047,2047,2047,2047,2047,2047,2047,2047,2047,2047,2047,2047,2047,2047,2047,2047,2047,2047,2047,2047,2047,2047,2047,2047,2047,2047,2047,2047,2047,2047,877,877,877,877,878,878,878,878,878,878,878,878,878,878,878,878,878,878,878,878,878,878,879,879,879,879,879,879,878,879,878,880,880,879,879,880,880,880,880,880,880,880,880,880,879,879,879,878,878,879,879,879,879,879,880,880,880,880,880,879,879,879,879,879,879,879,879,879,879,878,878,878,878,878,878,879,879,879,879,880,879,880,881,881,881,881,881,881,880,880,880,880,880,880,880,881,881,881,881,881,881,882,882,882,882,882,882,882,882,882,882,882,882,882,881,882,881,881,881,881,881,881,882,881,882,882,881,882,882,881,882,882,882,882,883,884,885,885,886,886,887,887,2047,2047,2047,2047,2047,2047,2047,2047,2047,2047,2047,2047,2047,2047,2047,2047,2047,2047,2047,2047,2047,2047,2047,2047,2047,2047,2047,2047,2047,2047,2047,2047,2047,2047,2047,2047,2047,2047,2047,889,889,889,888,888,887,886,885,884,884,884,883,882,882,883,882,882,880,880,881,881,882,880,880,880,880,880,880,880,880,880,880,880,880,879,879,878,877,876,875,874,873,873,873,873,872,872,2047,2047,2047,2047,2047,2047,2047,2047,2047,2047
630,631,630,630,630,631,631,631,631,631,631,631,631,631,631,631,631,630,631,631,631,631,631,632,631,631,631,631,631,630,630,630,630,630,630,630,630,629,628,628,628,627,628,628,628,630,631,632,632,632,632,633,633,634,635,635,635,636,637,639,639,639,640,640,641,642,642,644,644,645,645,646,648,650,650,652,653,654,654,655,657,657,658,659,660,662,663,665,665,675,676,676,677,677,679,680,681,682,683,683,683,684,684,685,685,686,687,687,688,689,689,689,689,690,691,872,872,872,872,872,872,872,872,872,872,872,872,871,872,872,872,872,871,871,871,871,871,872,872,872,872,872,872,872,872,872,872,872,872,872,872,871,871,871,871,872,872,872,873,873,873,873,872,872,872,873,873,873,873,874,2047,2047,2047,2047,2047,2047,2047,2047,2047,2047,2047,2047,2047,2047,2047,2047,2047,2047,2047,2047,2047,2047,2047,2047,2047,2047,2047,2047,2047,2047,2047,2047,2047,2047,2047,2047,2047,2047,2047,2047,2047,2047,2047,2047,2047,2047,2047,2047,2047,2047,2047,2047,2047,2047,2047,2047,2047,2047,2047,2047,2047,2047,2047,2047,2047,2047,2047,2047,2047,2047,2047,2047,2047,2047,2047,2047,2047,2047,2047,2047,2047,2047,2047,2047,2047,2047,2047,2047,2047,2047,2047,2047,2047,2047,2047,2047,2047,2047,2047,2047,2047,2047,2047,2047,2047,2047,2047,2047,2047,2047,2047,2047,2047,2047,2047,2047,2047,2047,2047,2047,2047,2047,2047,2047,2047,2047,2047,2047,2047,2047,2047,2047,2047,2047,2047,2047,2047,2047,2047,2047,2047,2047,2047,2047,2047,2047,2047,2047,2047,2047,2047,2047,2047,2047,2047,2047,2047,2047,2047,2047,2047,2047,2047,2047,2047,2047,2047,2047,2047,2047,2047,2047,2047,2047,2047,2047,2047,2047,2047,2047,2047,2047,2047,2047,2047,2047,2047,2047,2047,2047,2047,2047,2047,2047,2047,2047,2047,2047,2047,2047,2047,2047,2047,2047,2047,2047,2047,2047,2047,2047,2047,2047,2047,2047,2047,2047,2047,2047,2047,2047,2047,2047,2047,2047,2047,2047,2047,2047,2047,2047,878,878,878,878,878,878,878,878,878,878,878,878,878,878,878,878,878,878,878,878,878,878,878,878,878,878,879,879,879,879,880,880,880,881,880,880,881,881,881,880,880,880,880,880,880,880,880,879,879,879,880,881,881,880,880,880,880,880,880,880,879,880,880,880,880,880,879,879,879,879,879,879,878,879,878,879,879,880,880,880,880,880,881,881,881,881,882,882,882,882,881,881,881,881,880,881,881,882,881,881,881,881,882,882,882,882,883,883,883,882,882,882,883,882,882,882,882,882,882,882,881,881,881,881,881,882,882,882,882,882,882,882,882,882,883,883,885,885,886,886,886,887,887,2047,2047,2047,2047,2047,2047,2047,2047,2047,2047,2047,2047,2047,2047,2047,2047,2047,2047,2047,2047,2047,2047,2047,2047,2047,2047,2047,2047,2047,2047,2047,2047,2047,895,2047,2047,2047,892,891,889,889,889,888,887,886,886,885,884,883,883,883,882,882,882,882,882,881,881,881,881,881,880,880,880,880,879,880,880,880,880,879,880,880,880,879,878,877,875,874,874,872,872,873,873,871,872,2047,2047,2047,2047,2047,2047,2047,2047,2047,2047
630,631,631,631,631,631,631,632,631,631,631,631,631,631,631,631,631,631,631,631,630,630,629,631,630,630,630,630,630,624,624,624,624,626,624,625,625,626,627,627,627,627,627,628,628,630,630,631,631,632,632,632,633,634,635,635,635,636,637,638,638,639,640,640,640,642,642,644,644,645,645,646,647,649,650,652,653,653,654,655,656,657,658,659,660,663,663,666,666,672,675,676,677,677,679,680,682,682,683,683,684,684,684,685,685,687,687,688,688,689,689,689,690,691,872,872,871,872,872,872,872,872,872,872,872,872,872,871,871,871,872,872,871,871,871,871,872,872,872,872,871,872,872,871,871,872,872,872,872,872,872,872,871,871,871,872,872,872,873,873,873,873,873,873,873,873,873,873,873,873,873,2047,2047,2047,2047,2047,2047,2047,2047,2047,2047,2047,2047,2047,2047,2047,2047,2047,2047,2047,2047,2047,2047,2047,2047,2047,2047,2047,2047,2047,2047,2047,2047,2047,2047,2047,2047,2047,2047,2047,2047,2047,2047,2047,2047,2047,2047,2047,2047,2047,2047,2047,2047,2047,2047,2047,2047,2047,2047,2047,2047,2047,2047,2047,2047,2047,2047,2047,2047,2047,2047,2047,2047,2047,2047,2047,2047,2047,2047,2047,2047,2047,2047,2047,2047,2047,2047,2047,2047,2047,2047,2047,2047,2047,2047,2047,2047,2047,2047,2047,2047,2047,2047,2047,2047,2047,2047,2047,2047,2047,2047,2047,2047,2047,2047,2047,2047,2047,2047,2047,2047,2047,2047,2047,2047,2047,2047,2047,2047,2047,2047,2047,2047,2047,2047,2047,2047,2047,2047,2047,2047,2047,2047,2047,2047,2047,2047,2047,2047,2047,2047,2047,2047,2047,2047,2047,2047,2047,2047,2047,2047,2047,2047,2047,2047,2047,2047,2047,2047,2047,2047,2047,2047,2047,2047,2047,2047,2047,2047,2047,2047,2047,2047,2047,2047,2047,2047,2047,2047,2047,2047,2047,2047,2047,2047,2047,2047,2047,2047,2047,2047,2047,2047,2047,2047,2047,2047,2047,2047,2047,2047,2047,2047,2047,2047,2047,2047,2047,2047,2047,2047,2047,2047,2047,2047,2047,2047,2047,2047,2047,2047,878,878,878,878,878,878,878,879,879,879,879,879,879,878,878,878,878,878,878,878,878,878,878,879,879,879,879,880,880,880,880,881,881,881,881,881,881,881,881,881,881,881,880,880,880,880,880,880,880,881,881,881,881,880,881,881,880,880,880,880,880,880,880,880,880,880,880,880,879,879,879,879,880,879,879,880,880,880,880,881,880,881,881,882,882,882,882,882,882,881,881,881,881,881,881,882,882,882,882,882,882,883,883,883,883,883,883,883,882,882,882,882,882,882,882,882,882,882,882,882,882,881,882,882,882,882,883,882,883,882,882,882,883,883,883,885,885,886,886,886,887,886,2047,2047,2047,2047,2047,2047,2047,2047,2047,2047,2047,2047,2047,2047,2047,2047,2047,2047,2047,2047,2047,2047,2047,2047,2047,2047,2047,2047,2047,2047,2047,894,894,894,894,894,893,892,891,890,889,889,888,887,886,885,884,884,883,883,883,882,882,882,882,882,881,880,881,881,881,881,880,880,880,880,880,880,880,880,880,880,880,880,879,878,877,875,874,872,872,872,872,872,871,871,2047,2047,2047,2047,2047,2047,2047,2047,2047,2047
631,631,631,631,631,631,632,632,631,631,631,631,631,631,631,631,630,630,630,630,629,627,625,624,621,624,624,624,624,624,624,625,624,625,625,625,625,625,626,626,626,626,627,627,628,628,629,630,631,632,632,632,633,633,634,635,635,635,637,638,639,639,640,640,640,642,642,643,644,645,645,646,647,648,649,651,653,654,655,655,656,657,659,660,660,663,663,666,666,672,675,676,678,679,680,681,682,683,683,684,684,684,685,686,685,687,687,688,688,689,690,689,689,871,871,871,871,871,871,871,872,872,872,872,872,872,872,871,871,871,872,872,871,871,872,871,872,872,872,872,872,872,872,872,872,872,872,872,872,872,872,872,871,871,871,871,871,872,873,873,873,873,873,873,873,873,873,873,873,874,874,2047,2047,2047,2047,2047,2047,2047,2047,2047,2047,2047,2047,2047,2047,2047,2047,2047,2047,2047,2047,2047,2047,2047,2047,2047,2047,2047,2047,2047,2047,2047,2047,2047,2047,2047,2047,2047,2047,2047,2047,2047,2047,2047,2047,2047,2047,2047,2047,2047,2047,2047,2047,2047,2047,2047,2047,2047,2047,2047,2047,2047,2047,2047,2047,2047,2047,2047,2047,2047,2047,2047,2047,2047,2047,2047,2047,2047,2047,2047,2047,2047,2047,2047,2047,2047,2047,2047,2047,2047,2047,2047,2047,2047,2047,2047,2047,2047,2047,2047,2047,2047,2047,2047,2047,2047,2047,2047,2047,2047,2047,2047,2047,2047,2047,2047,2047,2047,2047,2047,2047,2047,2047,2047,2047,2047,2047,2047,2047,2047,2047,2047,2047,2047,2047,2047,2047,2047,2047,2047,2047,2047,2047,2047,2047,2047,2047,2047,2047,2047,2047,2047,2047,2047,2047,2047,2047,2047,2047,2047,2047,2047,2047,2047,2047,2047,2047,2047,2047,2047,2047,2047,2047,2047,2047,2047,2047,2047,2047,2047,2047,2047,2047,2047,2047,2047,2047,2047,2047,2047,2047,2047,2047,2047,2047,2047,2047,2047,2047,2047,2047,2047,2047,2047,2047,2047,2047,2047,2047,2047,2047,2047,2047,2047,2047,2047,2047,2047,2047,2047,2047,2047,2047,2047,2047,2047,2047,2047,2047,2047,878,878,878,878,878,878,878,878,879,879,879,879,879,879,879,879,878,878,879,878,879,879,879,879,879,879,879,880,880,880,880,880,881,881,881,881,881,881,881,881,881,881,881,881,881,881,880,881,880,881,881,881,881,881,881,881,881,881,881,881,880,881,880,880,880,880,880,880,880,880,880,880,880,880,881,881,881,881,881,881,881,881,882,882,882,882,882,882,882,882,881,882,881,882,881,882,882,882,882,882,882,882,883,883,882,883,883,883,883,882,882,882,882,882,882,882,882,882,882,882,882,882,882,883,882,883,883,883,883,883,883,883,883,883,884,885,885,886,886,886,886,886,886,2047,2047,2047,2047,2047,2047,2047,2047,2047,2047,2047,2047,2047,2047,2047,2047,2047,2047,2047,2047,2047,2047,900,2047,900,899,899,2047,2047,2047,895,894,894,894,893,893,892,891,891,890,889,889,888,887,886,885,884,883,883,883,882,882,882,882,882,882,881,881,881,881,881,881,881,880,881,880,881,881,880,881,880,880,879,879,879,877,877,875,872,872,872,872,874,872,871,872,872,874,873,2047,2047,2047,2047,2047,2047,2047
630,631,631,631,631,631,632,631,631,631,631,631,631,631,631,630,630,630,630,628,627,624,622,621,621,621,622,622,623,623,623,624,624,624,624,624,624,624,625,625,626,626,626,627,627,628,629,630,631,631,632,632,633,633,634,635,635,635,637,637,638,639,640,640,640,641,642,643,644,644,645,646,647,648,649,651,652,653,654,655,656,656,659,659,660,663,664,667,670,672,674,675,676,677,680,680,682,683,683,684,684,684,684,685,686,687,687,688,689,689,690,689,689,871,871,871,871,871,871,871,872,872,872,872,872,872,871,871,871,871,872,872,872,872,872,872,872,872,872,872,872,872,872,872,872,872,872,872,872,872,872,872,871,871,871,871,871,872,873,873,873,873,873,873,873,873,873,873,873,873,873,2047,2047,2047,2047,2047,2047,2047,2047,2047,2047,2047,2047,2047,2047,2047,2047,2047,2047,2047,2047,2047,2047,2047,2047,2047,2047,2047,2047,2047,2047,2047,2047,2047,2047,2047,2047,2047,2047,2047,2047,2047,2047,2047,2047,2047,2047,2047,2047,2047,2047,2047,2047,2047,2047,2047,2047,2047,2047,2047,2047,2047,2047,2047,2047,2047,2047,2047,2047,2047,2047,2047,2047,2047,2047,2047,2047,2047,2047,2047,2047,2047,2047,2047,2047,2047,2047,2047,2047,2047,2047,2047,2047,2047,2047,2047,2047,2047,2047,2047,2047,2047,2047,2047,2047,2047,2047,2047,2047,2047,2047,2047,2047,2047,2047,2047,2047,2047,2047,2047,2047,2047,2047,2047,2047,2047,2047,2047,2047,2047,2047,2047,2047,2047,2047,2047,2047,2047,2047,2047,2047,2047,2047,2047,2047,2047,2047,2047,2047,2047,2047,2047,2047,2047,2047,2047,2047,2047,2047,2047,2047,2047,2047,2047,2047,2047,2047,2047,2047,2047,2047,2047,2047,2047,2047,2047,2047,2047,2047,2047,2047,2047,2047,2047,2047,2047,2047,2047,2047,2047,2047,2047,2047,2047,2047,2047,2047,2047,2047,2047,2047,2047,2047,2047,2047,2047,2047,2047,2047,2047,2047,2047,2047,2047,2047,2047,2047,2047,2047,2047,2047,2047,2047,2047,2047,2047,2047,2047,2047,2047,2047,878,878,878,878,878,879,879,879,879,879,879,879,879,879,879,878,879,879,879,879,879,879,879,880,880,880,880,880,880,880,881,881,881,881,881,881,881,881,881,881,881,881,881,881,881,881,881,881,881,881,881,881,881,881,881,881,881,881,881,881,881,881,881,881,881,881,881,881,880,880,880,880,881,881,881,881,881,881,881,881,881,882,882,882,882,882,882,882,882,882,882,882,882,882,882,883,883,882,882,882,882,883,882,882,883,883,883,883,882,882,882,883,883,883,882,883,883,882,883,882,882,882,883,883,883,883,883,883,883,883,883,884,884,885,886,886,886,886,886,886,886,886,2047,2047,2047,2047,2047,2047,2047,2047,2047,2047,2047,2047,2047,2047,2047,2047,2047,2047,2047,2047,2047,900,900,900,899,899,898,898,898,898,895,895,894,893,893,892,892,891,890,890,889,888,887,886,885,885,884,883,883,883,882,882,882,882,882,882,881,882,881,881,882,881,881,881,881,880,881,881,881,881,879,879,879,879,878,877,876,875,872,872,872,872,872,872,871,872,872,873,873,2047,2047,2047,2047,2047,2047,2047
630,630,632,631,631,631,632,631,631,631,630,631,630,630,630,630,630,629,629,624,624,624,621,621,620,620,621,621,621,621,622,622,623,623,623,624,624,624,624,624,625,625,625,627,627,628,629,630,631,631,632,632,633,634,635,635,635,636,636,637,638,639,640,640,640,641,642,643,644,644,645,646,646,647,648,651,652,653,654,654,655,656,657,659,660,662,666,667,668,671,674,674,676,677,679,680,682,683,683,684,684,684,685,686,686,687,687,688,688,689,689,689,688,871,871,871,871,871,871,872,872,872,872,872,872,871,871,871,871,871,872,871,872,872,872,872,872,872,872,872,872,872,872,872,872,872,872,872,872,872,872,872,871,871,871,871,871,872,873,873,873,873,873,873,873,873,873,873,873,873,873,2047,2047,2047,2047,2047,2047,2047,2047,2047,2047,2047,2047,2047,2047,2047,2047,2047,2047,2047,2047,2047,2047,2047,2047,2047,2047,2047,2047,2047,2047,2047,2047,2047,2047,2047,2047,2047,2047,2047,2047,2047,2047,2047,2047,2047,2047,2047,2047,2047,2047,2047,2047,2047,2047,2047,2047,2047,2047,2047,2047,2047,2047,2047,2047,2047,2047,2047,2047,2047,2047,2047,2047,2047,2047,2047,2047,2047,2047,2047,2047,2047,2047,2047,2047,2047,2047,2047,2047,2047,2047,2047,2047,2047,2047,2047,2047,2047,2047,2047,2047,2047,2047,2047,2047,2047,2047,2047,2047,2047,2047,2047,2047,2047,2047,2047,2047,2047,2047,2047,2047,2047,2047,2047,2047,2047,2047,2047,2047,2047,2047,2047,2047,2047,2047,2047,2047,2047,2047,2047,2047,2047,2047,2047,2047,2047,2047,2047,2047,2047,2047,2047,2047,2047,2047,2047,2047,2047,2047,2047,2047,2047,2047,2047,2047,2047,2047,2047,2047,2047,2047,2047,2047,2047,2047,2047,2047,2047,2047,2047,2047,2047,2047,2047,2047,2047,2047,2047,2047,2047,2047,2047,2047,2047,2047,2047,2047,2047,2047,2047,2047,2047,2047,2047,2047,2047,2047,2047,2047,2047,2047,2047,2047,2047,2047,2047,2047,2047,2047,2047,2047,2047,2047,2047,2047,2047,2047,2047,2047,2047,2047,879,878,879,879,879,879,879,879,880,880,880,880,880,880,880,879,879,879,879,879,880,879,880,880,880,880,881,881,881,881,881,881,881,881,881,881,881,881,881,881,881,881,881,881,881,881,881,881,881,881,881,881,881,881,881,881,881,881,881,881,881,881,881,881,881,881,881,881,881,881,881,881,881,881,881,881,881,881,881,881,882,883,883,883,883,883,883,883,882,882,882,882,882,882,882,882,882,882,882,882,882,883,883,882,883,883,883,883,882,882,882,883,883,883,883,882,883,883,883,883,883,883,883,883,883,883,883,883,883,883,884,884,885,886,886,886,886,887,887,886,886,886,2047,2047,2047,2047,2047,2047,2047,2047,2047,2047,2047,2047,2047,2047,2047,2047,906,905,905,903,902,901,900,900,899,899,898,898,897,897,896,895,895,894,892,892,891,890,889,889,888,888,887,886,885,885,884,883,883,883,882,882,882,882,882,881,881,882,881,882,882,881,881,881,881,880,881,881,880,881,880,880,879,879,878,877,875,874,872,871,872,872,874,873,872,873,873,874,873,2047,2047,2047,2047,2047,2047,2047
630,630,631,631,630,630,631,631,631,631,630,630,630,622,621,621,623,623,622,621,623,623,621,620,620,620,620,620,620,620,621,621,621,622,622,623,623,623,623,624,624,624,625,626,626,627,628,629,630,630,631,632,633,634,635,635,636,636,636,636,637,638,639,640,640,642,643,643,644,644,645,646,646,648,649,651,651,653,654,654,655,655,656,659,660,663,665,667,667,669,671,673,676,677,679,680,682,683,684,684,684,685,685,686,686,687,687,687,688,689,689,689,688,870,871,871,871,871,872,872,872,872,872,872,872,871,871,871,871,871,871,871,871,872,872,871,872,872,872,872,872,871,871,872,872,872,872,871,872,872,872,872,871,871,871,871,871,871,872,872,872,872,873,873,873,873,873,873,873,873,873,2047,2047,2047,2047,2047,2047,2047,2047,2047,2047,2047,2047,2047,2047,2047,2047,2047,2047,2047,2047,2047,2047,2047,2047,2047,2047,2047,2047,2047,2047,2047,2047,2047,2047,2047,2047,2047,2047,2047,2047,2047,2047,2047,2047,2047,2047,2047,2047,2047,2047,2047,2047,2047,2047,2047,2047,2047,2047,2047,2047,2047,2047,2047,2047,2047,2047,2047,2047,2047,2047,2047,2047,2047,2047,2047,2047,2047,2047,2047,2047,2047,2047,2047,2047,2047,2047,2047,2047,2047,2047,2047,2047,2047,2047,2047,2047,2047,2047,2047,2047,2047,2047,2047,2047,2047,2047,2047,2047,2047,2047,2047,2047,2047,2047,2047,2047,2047,2047,2047,2047,2047,2047,2047,2047,2047,2047,2047,2047,2047,2047,2047,2047,2047,2047,2047,2047,2047,2047,2047,2047,2047,2047,2047,2047,2047,2047,2047,2047,2047,2047,2047,2047,2047,2047,2047,2047,2047,2047,2047,2047,2047,2047,2047,2047,2047,2047,2047,2047,2047,2047,2047,2047,2047,2047,2047,2047,2047,2047,2047,2047,2047,2047,2047,2047,2047,2047,2047,2047,2047,2047,2047,2047,2047,2047,2047,2047,2047,2047,2047,2047,2047,2047,2047,2047,2047,2047,2047,2047,2047,2047,2047,2047,2047,2047,2047,2047,2047,2047,2047,2047,2047,2047,2047,2047,2047,2047,2047,2047,2047,2047,879,879,878,879,879,880,879,879,880,880,880,880,880,880,880,880,880,880,879,880,880,880,880,880,880,880,881,881,881,881,881,881,881,881,881,881,881,881,881,881,881,881,881,881,881,881,881,881,881,881,881,881,881,881,881,881,881,881,881,881,881,881,881,881,881,881,881,881,881,881,881,881,881,881,881,881,881,882,882,882,882,883,883,883,883,883,883,882,882,882,882,882,882,882,882,882,882,882,881,882,882,883,883,882,883,883,883,883,882,882,883,883,883,883,883,883,883,883,883,883,883,883,884,884,884,884,883,883,883,883,884,884,885,886,886,886,887,887,887,886,886,885,2047,2047,2047,2047,2047,2047,2047,2047,2047,2047,2047,2047,2047,2047,907,906,906,906,905,904,902,901,900,900,899,898,898,897,897,897,896,895,894,893,892,891,891,890,889,889,888,888,887,886,885,884,884,883,883,883,882,882,882,882,882,881,881,881,881,881,881,881,881,881,881,881,881,881,881,881,880,881,879,879,878,877,877,875,872,872,872,873,874,874,873,873,873,874,874,2047,2047,2047,2047,2047,2047,2047
2047,630,630,630,630,624,624,625,624,624,624,624,622,622,621,621,621,621,621,620,620,620,620,620,620,620,620,620,620,620,620,621,621,621,621,621,622,622,623,623,624,624,624,626,626,627,628,628,629,628,630,631,632,634,635,635,636,636,636,636,637,637,639,640,640,642,643,643,644,644,646,646,646,648,649,651,651,652,653,653,654,655,656,657,659,663,665,666,667,669,669,671,675,677,679,680,682,683,684,684,684,685,686,686,687,688,688,688,688,688,688,688,687,869,870,871,871,871,872,872,872,872,871,871,871,871,871,871,871,871,871,871,871,871,871,871,871,871,872,872,872,871,871,871,871,871,871,871,871,871,872,871,871,871,871,871,871,871,872,872,872,872,873,873,873,873,873,873,873,873,873,873,2047,2047,2047,2047,2047,2047,2047,2047,2047,2047,2047,2047,2047,2047,2047,2047,2047,2047,2047,2047,2047,2047,2047,2047,2047,2047,2047,2047,2047,2047,2047,2047,2047,2047,2047,2047,2047,2047,2047,2047,2047,2047,2047,2047,2047,2047,2047,2047,2047,2047,2047,2047,2047,2047,2047,2047,2047,2047,2047,2047,2047,2047,2047,2047,2047,2047,2047,2047,2047,2047,2047,2047,2047,2047,2047,2047,2047,2047,2047,2047,2047,2047,2047,2047,2047,2047,2047,2047,2047,2047,2047,2047,2047,2047,2047,2047,2047,2047,2047,2047,2047,2047,2047,2047,2047,2047,2047,2047,2047,2047,2047,2047,2047,2047,2047,2047,2047,2047,2047,2047,2047,2047,2047,2047,2047,2047,2047,2047,2047,2047,2047,2047,2047,2047,2047,2047,2047,2047,2047,2047,2047,2047,2047,2047,2047,2047,2047,2047,2047,2047,2047,2047,2047,2047,2047,2047,2047,2047,2047,2047,2047,2047,2047,2047,2047,2047,2047,2047,2047,2047,2047,2047,2047,2047,2047,2047,2047,2047,2047,2047,2047,2047,2047,2047,2047,2047,2047,2047,2047,2047,2047,2047,2047,2047,2047,2047,2047,2047,2047,2047,2047,2047,2047,2047,2047,2047,2047,2047,2047,2047,2047,2047,2047,2047,2047,2047,2047,2047,2047,2047,2047,2047,2047,2047,2047,2047,2047,2047,2047,879,878,879,879,879,880,880,880,880,880,880,880,880,880,880,880,880,880,879,880,880,880,880,881,881,881,881,881,881,881,881,881,881,881,881,881,881,881,881,881,881,881,881,881,881,881,881,881,881,881,881,881,881,881,881,881,881,881,881,881,881,881,881,881,881,881,881,881,881,881,881,881,881,881,882,882,882,882,882,882,882,883,883,883,883,883,883,883,882,882,882,882,882,882,882,883,882,882,882,882,882,882,882,882,882,883,883,883,882,882,882,883,883,883,883,882,883,883,883,883,884,883,884,884,884,884,883,883,883,883,883,884,885,885,886,886,887,887,887,886,886,886,2047,2047,2047,2047,2047,2047,2047,2047,2047,2047,2047,908,907,907,907,906,906,905,905,904,903,902,900,900,899,898,898,897,896,896,895,895,894,892,891,891,890,890,889,889,888,888,887,887,885,884,884,883,883,883,882,882,882,882,881,881,881,881,881,881,881,881,881,881,881,881,881,881,881,881,880,881,879,879,879,878,877,876,875,872,871,874,874,874,873,874,874,875,874,2047,2047,2047,2047,2047,2047,2047
2047,629,630,630,625,624,623,624,623,623,623,622,622,621,621,620,620,621,620,620,620,620,620,620,620,620,620,620,620,620,620,620,620,621,621,621,622,622,623,623,623,624,624,625,625,627,627,628,628,627,627,628,630,633,635,635,636,635,636,636,636,637,638,640,640,642,642,643,643,644,645,645,646,648,649,650,651,652,653,653,654,655,656,657,660,662,664,666,666,668,669,670,673,676,679,680,682,683,684,684,684,685,686,686,687,688,688,688,688,688,688,688,687,870,870,871,871,871,872,872,872,872,871,871,871,871,871,871,871,871,871,871,871,871,871,871,871,871,871,872,871,871,871,871,871,871,871,871,871,871,872,872,871,871,871,871,871,871,872,872,872,873,873,873,873,873,873,872,872,872,872,2047,2047,2047,2047,2047,2047,2047,2047,2047,2047,2047,2047,2047,2047,2047,2047,2047,2047,2047,2047,2047,2047,2047,2047,2047,2047,2047,2047,2047,2047,2047,2047,2047,2047,2047,2047,2047,2047,2047,2047,2047,2047,2047,2047,2047,2047,2047,2047,2047,2047,2047,2047,2047,2047,2047,2047,2047,2047,2047,2047,2047,2047,2047,2047,2047,2047,2047,2047,2047,2047,2047,2047,2047,2047,2047,2047,2047,2047,2047,2047,2047,2047,2047,2047,2047,2047,2047,2047,2047,2047,2047,2047,2047,2047,2047,2047,2047,2047,2047,2047,2047,2047,2047,2047,2047,2047,2047,2047,2047,2047,2047,2047,2047,2047,2047,2047,2047,2047,2047,2047,2047,2047,2047,2047,2047,2047,2047,2047,2047,2047,2047,2047,2047,2047,2047,2047,2047,2047,2047,2047,2047,2047,2047,2047,2047,2047,2047,2047,2047,2047,2047,2047,2047,2047,2047,2047,2047,2047,2047,2047,2047,2047,2047,2047,2047,2047,2047,2047,2047,2047,2047,2047,2047,2047,2047,2047,2047,2047,2047,2047,2047,2047,2047,2047,2047,2047,2047,2047,2047,2047,2047,2047,2047,2047,2047,2047,2047,2047,2047,2047,2047,2047,2047,2047,2047,2047,2047,2047,2047,2047,2047,2047,2047,2047,2047,2047,2047,2047,2047,2047,2047,2047,2047,2047,2047,2047,2047,2047,2047,2047,879,878,879,879,879,880,879,880,880,880,880,880,880,880,880,880,880,880,879,880,880,880,880,881,880,881,881,881,881,881,881,881,881,881,881,881,881,881,881,881,881,881,881,881,881,881,881,881,881,881,881,881,881,881,881,881,881,881,881,881,881,881,881,881,881,881,881,881,881,881,881,881,881,881,882,882,882,882,882,882,882,883,883,883,883,883,883,882,883,882,882,882,882,882,882,883,882,881,881,882,882,882,882,882,882,882,882,882,882,882,882,882,883,882,882,882,883,883,883,883,884,884,884,884,883,883,883,883,883,883,883,884,884,885,886,886,887,887,887,886,886,885,2047,2047,2047,2047,2047,2047,2047,2047,2047,2047,2047,907,907,906,906,906,906,905,905,904,902,902,901,900,899,898,898,897,896,896,895,895,894,892,891,891,890,890,889,889,888,887,887,886,885,884,884,883,883,883,882,881,881,881,881,880,880,880,880,881,881,881,881,881,881,881,881,880,880,880,880,880,879,879,879,878,877,874,874,872,874,874,874,874,873,874,874,874,874,2047,2047,2047,2047,2047,2047,2047
2047,2047,623,623,623,623,623,623,623,622,622,622,621,621,621,620,620,620,620,620,620,620,620,620,620,620,620,620,620,620,620,620,620,620,621,621,622,621,622,622,622,623,623,624,626,626,627,627,627,626,626,626,627,630,634,635,636,635,635,635,635,636,637,639,640,641,642,643,643,644,645,646,646,648,648,650,650,651,652,653,654,654,656,657,659,663,664,665,666,668,668,669,671,676,680,681,683,684,684,685,685,685,686,687,687,688,688,688,689,688,688,687,869,870,872,871,872,872,872,872,872,871,871,871,871,871,871,871,871,871,871,871,871,871,871,871,871,871,872,872,871,871,871,871,871,871,871,871,871,871,872,872,871,871,871,871,871,871,872,873,873,873,873,873,873,873,873,872,872,872,872,2047,2047,2047,2047,2047,2047,2047,2047,2047,2047,2047,2047,2047,2047,2047,2047,2047,2047,2047,2047,2047,2047,2047,2047,2047,2047,2047,2047,2047,2047,2047,2047,2047,2047,2047,2047,2047,2047,2047,2047,2047,2047,2047,2047,2047,2047,2047,2047,2047,2047,2047,2047,2047,2047,2047,2047,2047,2047,2047,2047,2047,2047,2047,2047,2047,2047,2047,2047,2047,2047,2047,2047,2047,2047,2047,2047,2047,2047,2047,2047,2047,2047,2047,2047,2047,2047,2047,2047,2047,2047,2047,2047,2047,2047,2047,2047,2047,2047,2047,2047,2047,2047,2047,2047,2047,2047,2047,2047,2047,2047,2047,2047,2047,2047,2047,2047,2047,2047,2047,2047,2047,2047,2047,2047,2047,2047,2047,2047,2047,2047,2047,2047,2047,2047,2047,2047,2047,2047,2047,2047,2047,2047,2047,2047,2047,2047,2047,2047,2047,2047,2047,2047,2047,2047,2047,2047,2047,2047,2047,2047,2047,2047,2047,2047,2047,2047,2047,2047,2047,2047,2047,2047,2047,2047,2047,2047,2047,2047,2047,2047,2047,2047,2047,2047,2047,2047,2047,2047,2047,2047,2047,2047,2047,2047,2047,2047,2047,2047,2047,2047,2047,2047,2047,2047,2047,2047,2047,2047,2047,2047,2047,2047,2047,2047,2047,2047,2047,2047,2047,2047,2047,2047,2047,2047,2047,2047,2047,2047,2047,2047,2047,879,879,879,879,880,879,879,880,880,880,880,879,880,880,880,880,880,879,880,880,880,880,881,880,880,881,881,881,881,881,881,881,881,881,881,881,881,881,881,881,882,881,881,881,881,881,881,881,881,881,881,881,881,881,881,881,881,881,881,881,881,881,881,881,881,881,881,881,881,881,881,881,881,881,882,882,882,882,882,882,883,883,883,883,883,883,882,882,882,882,882,882,882,882,882,882,881,881,881,882,882,882,882,882,882,882,882,882,882,882,883,883,883,883,882,883,883,883,883,883,883,883,883,883,883,883,883,883,883,883,884,884,884,886,886,887,887,887,886,887,885,2047,2047,2047,2047,2047,2047,2047,2047,2047,2047,908,907,907,906,906,906,905,905,904,903,903,902,900,900,899,898,898,897,896,896,895,895,894,894,891,891,890,890,889,889,888,887,887,886,885,884,884,883,883,883,882,881,881,881,881,881,880,880,880,880,881,882,881,881,881,880,881,880,880,880,880,881,879,879,879,878,878,877,876,875,875,874,875,874,873,874,874,875,875,2047,2047,2047,2047,2047,2047,2047
2047,623,623,623,623,623,622,623,622,622,622,621,621,620,620,620,619,619,620,620,620,620,620,620,620,620,620,620,620,620,619,620,620,620,620,620,620,620,620,620,620,621,621,622,624,624,625,625,625,625,625,625,625,625,628,628,635,635,635,634,634,634,634,629,640,640,641,642,643,643,645,645,646,648,648,650,650,651,652,653,654,655,656,657,659,663,664,665,665,667,668,669,672,675,680,682,683,684,685,685,685,686,687,687,687,688,688,688,689,688,687,869,869,869,870,870,871,871,872,872,872,871,871,871,871,871,871,871,871,871,871,871,871,871,871,871,871,872,872,872,872,871,871,871,871,871,871,871,871,871,872,872,872,871,871,871,871,871,872,873,872,873,873,873,873,873,873,872,872,872,872,2047,2047,2047,2047,2047,2047,2047,2047,2047,2047,2047,2047,2047,2047,2047,2047,2047,2047,2047,2047,2047,2047,2047,2047,2047,2047,2047,2047,2047,2047,2047,2047,2047,2047,2047,2047,2047,2047,2047,2047,2047,2047,2047,2047,2047,2047,2047,2047,2047,2047,2047,2047,2047,2047,2047,2047,2047,2047,2047,2047,2047,2047,2047,2047,2047,2047,2047,2047,2047,2047,2047,2047,2047,2047,2047,2047,2047,2047,2047,2047,2047,2047,2047,2047,2047,2047,2047,2047,2047,2047,2047,2047,2047,2047,2047,2047,2047,2047,2047,2047,2047,2047,2047,2047,2047,2047,2047,2047,2047,2047,2047,2047,2047,2047,2047,2047,2047,2047,2047,2047,2047,2047,2047,2047,2047,2047,2047,2047,2047,2047,2047,2047,2047,2047,2047,2047,2047,2047,2047,2047,2047,2047,2047,2047,2047,2047,2047,2047,2047,2047,2047,2047,2047,2047,2047,2047,2047,2047,2047,2047,2047,2047,2047,2047,2047,2047,2047,2047,2047,2047,2047,2047,2047,2047,2047,2047,2047,2047,2047,2047,2047,2047,2047,2047,2047,2047,2047,2047,2047,2047,2047,2047,2047,2047,2047,2047,2047,2047,2047,2047,2047,2047,2047,2047,2047,2047,2047,2047,2047,2047,2047,2047,2047,2047,2047,2047,2047,2047,2047,2047,2047,2047,2047,2047,2047,2047,2047,2047,2047,2047,2047,2047,880,879,879,880,879,879,879,880,880,880,879,880,880,880,880,880,879,880,880,880,880,881,880,880,881,881,881,881,881,881,881,881,881,881,881,881,881,881,881,881,881,881,881,881,881,881,881,881,881,881,881,881,881,881,881,881,881,881,881,881,881,881,881,881,881,881,881,881,881,881,881,881,881,882,882,882,882,882,882,883,883,883,883,882,882,882,882,882,882,882,882,882,882,882,882,882,881,882,882,882,882,882,882,882,882,882,882,882,882,883,883,883,883,882,883,883,883,883,883,883,883,883,883,883,883,883,883,883,883,883,883,884,885,886,887,886,886,886,887,887,2047,2047,2047,2047,2047,2047,2047,2047,2047,2047,907,907,906,906,906,905,905,905,904,903,902,902,901,900,899,898,898,897,896,896,895,895,894,892,891,891,890,890,890,889,889,888,887,886,885,884,884,883,883,882,882,881,881,880,880,880,880,880,880,881,881,882,881,882,881,880,880,880,880,879,879,880,879,879,879,878,878,877,877,876,876,875,875,874,873,874,874,875,875,2047,2047,2047,2047,2047,2047,2047
2047,624,623,623,623,623,623,623,623,622,622,621,621,621,620,619,619,619,620,620,620,620,620,620,620,620,620,620,620,620,620,620,620,620,620,619,620,620,620,620,620,620,621,621,623,624,624,625,625,625,625,625,624,624,626,627,628,628,629,632,631,629,629,629,640,640,641,642,642,643,644,645,646,648,649,650,650,651,652,653,655,655,656,657,659,662,663,665,665,666,667,668,669,669,682,682,683,684,685,685,686,687,687,688,687,688,688,689,689,688,869,869,869,870,871,870,871,871,871,871,871,871,871,871,871,871,871,871,870,870,871,870,870,871,871,871,871,871,872,872,871,871,871,871,871,871,871,871,871,871,871,872,871,871,871,871,871,871,872,872,872,872,872,873,873,873,873,872,872,872,872,2047,2047,2047,2047,2047,2047,2047,2047,2047,2047,2047,2047,2047,2047,2047,2047,2047,2047,2047,2047,2047,2047,2047,2047,2047,2047,2047,2047,2047,2047,2047,2047,2047,2047,2047,2047,2047,2047,2047,2047,2047,2047,2047,2047,2047,2047,2047,2047,2047,2047,2047,2047,2047,2047,2047,2047,2047,2047,2047,2047,2047,2047,2047,2047,2047,2047,2047,2047,2047,2047,2047,2047,2047,2047,2047,2047,2047,2047,2047,2047,2047,2047,2047,2047,2047,2047,2047,2047,2047,2047,2047,2047,2047,2047,2047,2047,2047,2047,2047,2047,2047,2047,2047,2047,2047,2047,2047,2047,2047,2047,2047,2047,2047,2047,2047,2047,2047,2047,2047,2047,2047,2047,2047,2047,2047,2047,2047,2047,2047,2047,2047,2047,2047,2047,2047,2047,2047,2047,2047,2047,2047,2047,2047,2047,2047,2047,2047,2047,2047,2047,2047,2047,2047,2047,2047,2047,2047,2047,2047,2047,2047,2047,2047,2047,2047,2047,2047,2047,2047,2047,2047,2047,2047,2047,2047,2047,2047,2047,2047,2047,2047,2047,2047,2047,2047,2047,2047,2047,2047,2047,2047,2047,2047,2047,2047,2047,2047,2047,2047,2047,2047,2047,2047,2047,2047,2047,2047,2047,2047,2047,2047,2047,2047,2047,2047,2047,2047,2047,2047,2047,2047,2047,2047,2047,2047,2047,2047,2047,2047,2047,2047,2047,880,879,879,880,879,879,880,880,880,880,880,880,880,880,880,880,879,880,880,880,880,880,880,880,881,881,881,881,881,881,881,881,881,881,881,881,881,881,881,881,881,881,881,881,881,881,881,881,881,881,881,881,881,881,881,881,881,881,881,881,881,881,881,881,881,881,881,881,881,881,881,881,881,881,881,882,882,882,882,883,883,883,883,882,882,882,882,882,882,882,882,882,882,882,882,882,882,882,882,882,882,882,882,882,882,882,882,882,882,883,883,883,883,882,883,883,883,883,883,883,883,883,883,883,883,883,883,882,883,883,883,884,885,886,887,886,887,886,886,886,885,2047,2047,2047,2047,2047,2047,2047,2047,2047,907,906,906,905,906,905,904,904,903,903,902,902,900,900,899,898,898,897,897,896,895,895,895,893,892,891,891,890,890,889,888,887,887,886,886,885,884,883,883,882,882,881,881,880,880,879,879,880,880,880,881,881,881,881,880,880,880,880,879,879,879,880,879,879,878,878,878,877,877,877,876,875,875,875,875,876,2047,2047,2047,2047,2047,2047,2047,2047,2047,2047
2047,624,623,623,623,623,623,623,623,622,622,621,621,621,620,620,619,620,621,621,621,620,620,620,621,621,620,620,620,620,620,620,620,620,620,620,620,620,620,620,620,621,621,622,622,623,623,624,624,625,624,625,624,624,626,627,627,628,629,631,631,630,631,632,632,639,640,640,641,642,644,645,646,649,649,650,650,652,653,654,655,655,657,657,659,662,663,664,665,666,667,668,669,669,682,682,682,684,685,686,686,687,688,688,688,688,688,690,689,688,869,869,870,870,870,870,871,871,871,871,871,871,871,871,871,871,871,871,871,871,871,870,871,871,871,871,871,872,872,872,872,872,871,871,871,871,871,871,871,871,871,871,871,871,871,871,871,871,872,872,872,872,872,873,873,872,872,872,872,872,872,2047,2047,2047,2047,2047,2047,2047,2047,2047,2047,2047,2047,2047,2047,2047,2047,2047,2047,2047,2047,2047,2047,2047,2047,2047,2047,2047,2047,2047,2047,2047,2047,2047,2047,2047,2047,2047,2047,2047,2047,2047,2047,2047,2047,2047,2047,2047,2047,2047,2047,2047,2047,2047,2047,2047,2047,2047,2047,2047,2047,2047,2047,2047,2047,2047,2047,2047,2047,2047,2047,2047,2047,2047,2047,2047,2047,2047,2047,2047,2047,2047,2047,2047,2047,2047,2047,2047,2047,2047,2047,2047,2047,2047,2047,2047,2047,2047,2047,2047,2047,2047,2047,2047,2047,2047,2047,2047,2047,2047,2047,2047,2047,2047,2047,2047,2047,2047,2047,2047,2047,2047,2047,2047,2047,2047,2047,2047,2047,2047,2047,2047,2047,2047,2047,2047,2047,2047,2047,2047,2047,2047,2047,2047,2047,2047,2047,2047,2047,2047,2047,2047,2047,2047,2047,2047,2047,2047,2047,2047,2047,2047,2047,2047,2047,2047,2047,2047,2047,2047,2047,2047,2047,2047,2047,2047,2047,2047,2047,2047,2047,2047,2047,2047,2047,2047,2047,2047,2047,2047,2047,2047,2047,2047,2047,2047,2047,2047,2047,2047,2047,2047,2047,2047,2047,2047,2047,2047,2047,2047,2047,2047,2047,2047,2047,2047,2047,2047,2047,2047,2047,2047,2047,2047,2047,2047,2047,2047,2047,2047,2047,2047,2047,2047,879,880,880,879,879,879,879,879,880,880,880,880,880,880,880,879,880,880,880,880,880,880,880,880,881,881,880,880,881,881,881,881,881,881,881,881,881,881,881,881,881,881,881,881,881,881,881,881,881,881,881,881,881,881,881,881,881,881,881,881,881,881,881,881,881,881,881,881,881,881,881,881,881,881,881,881,882,882,882,882,882,882,882,882,882,882,882,882,882,882,882,882,882,882,882,882,882,882,882,882,882,882,882,882,882,882,882,882,882,883,883,882,882,883,883,883,882,883,883,883,883,883,883,883,883,882,882,882,883,883,883,884,885,886,886,886,886,886,886,886,2047,2047,2047,2047,2047,2047,2047,2047,2047,2047,906,906,906,906,905,905,905,904,903,902,902,901,900,899,899,898,897,897,896,896,895,894,893,892,891,891,891,890,890,889,888,887,886,886,885,885,884,883,883,882,881,881,880,880,879,879,879,879,879,880,881,880,880,880,880,879,879,879,879,879,880,879,879,878,878,878,878,877,877,877,874,874,874,873,2047,2047,2047,2047,2047,2047,2047,2047,2047,2047,2047
2047,624,624,623,623,624,623,623,623,622,622,622,622,622,621,621,620,621,622,622,621,621,621,621,622,622,621,622,622,623,621,621,621,620,621,620,620,620,620,620,621,622,622,623,623,624,624,624,624,625,624,625,624,624,626,626,627,627,628,629,629,629,630,631,632,636,637,637,639,639,641,642,642,648,649,650,650,651,652,654,656,655,657,658,660,662,663,664,665,665,666,667,668,671,671,683,683,685,686,686,687,687,688,688,688,688,690,690,689,688,870,870,870,870,871,871,871,871,871,871,871,871,871,871,871,871,871,871,871,870,870,870,870,870,870,870,871,871,872,872,872,872,871,872,871,871,871,871,871,871,871,871,871,871,871,871,871,871,872,872,872,872,872,872,872,872,872,872,872,872,872,2047,2047,2047,2047,2047,2047,2047,2047,2047,2047,2047,2047,2047,2047,2047,2047,2047,2047,2047,2047,2047,2047,2047,2047,2047,2047,2047,2047,2047,2047,2047,2047,2047,2047,2047,2047,2047,2047,2047,2047,2047,2047,2047,2047,2047,2047,2047,2047,2047,2047,2047,2047,2047,2047,2047,2047,2047,2047,2047,2047,2047,2047,2047,2047,2047,2047,2047,2047,2047,2047,2047,2047,2047,2047,2047,2047,2047,2047,2047,2047,2047,2047,2047,2047,2047,2047,2047,2047,2047,2047,2047,2047,2047,2047,2047,2047,2047,2047,2047,2047,2047,2047,2047,2047,2047,2047,2047,2047,2047,2047,2047,2047,2047,2047,2047,2047,2047,2047,2047,2047,2047,2047,2047,2047,2047,2047,2047,2047,2047,2047,2047,2047,2047,2047,2047,2047,2047,2047,2047,2047,2047,2047,2047,2047,2047,2047,2047,2047,2047,2047,2047,2047,2047,2047,2047,2047,2047,2047,2047,2047,2047,2047,2047,2047,2047,2047,2047,2047,2047,2047,2047,2047,2047,2047,2047,2047,2047,2047,2047,2047,2047,2047,2047,2047,2047,2047,2047,2047,2047,2047,2047,2047,2047,2047,2047,2047,2047,2047,2047,2047,2047,2047,2047,2047,2047,2047,2047,2047,2047,2047,2047,2047,2047,2047,2047,2047,2047,2047,2047,2047,2047,2047,2047,2047,2047,2047,2047,2047,2047,2047,2047,2047,2047,880,880,880,879,879,879,879,879,880,879,880,880,880,880,880,879,880,879,880,880,880,880,880,880,880,881,880,880,881,881,881,881,881,881,881,880,881,881,881,881,881,881,881,881,881,881,881,881,881,881,881,881,881,881,881,881,881,881,881,881,881,881,881,881,881,881,881,881,881,881,881,881,881,881,881,881,882,881,882,882,882,882,882,882,882,882,882,881,881,882,882,882,882,882,882,882,882,882,882,882,882,882,882,882,882,882,882,883,882,883,883,882,882,883,883,883,882,883,883,883,883,883,882,882,882,882,882,882,883,883,884,884,885,886,886,886,886,886,886,886,2047,2047,2047,2047,2047,2047,2047,2047,2047,2047,2047,906,906,906,905,905,904,904,903,903,902,902,900,899,899,898,898,897,897,896,895,894,894,892,891,891,891,890,890,889,888,887,886,886,885,885,884,883,883,882,881,880,880,879,879,879,879,879,879,880,880,880,880,880,879,879,879,879,879,879,879,879,878,878,878,878,878,877,877,877,875,875,874,2047,2047,2047,2047,2047,2047,2047,2047,2047,2047,2047,2047
2047,624,624,624,623,623,623,623,623,623,622,622,622,622,622,622,621,622,623,623,622,622,622,622,623,623,622,623,624,624,624,624,624,623,623,623,622,621,622,622,622,623,623,623,624,624,624,624,624,625,625,625,625,625,626,626,626,627,628,628,629,629,630,631,631,632,632,634,636,636,637,636,636,635,635,651,651,651,652,653,655,655,657,657,660,662,663,664,664,665,665,666,668,670,670,683,683,685,686,685,686,687,688,688,688,688,691,691,689,869,869,870,870,870,870,870,870,871,871,871,871,871,871,871,871,871,871,871,871,871,870,870,870,871,871,871,871,871,872,872,872,872,872,872,871,871,871,871,871,871,871,871,871,871,871,871,871,871,872,872,872,872,872,872,872,872,872,872,872,872,872,2047,2047,2047,2047,2047,2047,2047,2047,2047,2047,2047,2047,2047,2047,2047,2047,2047,2047,2047,2047,2047,2047,2047,2047,2047,2047,2047,2047,2047,2047,2047,2047,2047,2047,2047,2047,2047,2047,2047,2047,2047,2047,2047,2047,2047,2047,2047,2047,2047,2047,2047,2047,2047,2047,2047,2047,2047,2047,2047,2047,2047,2047,2047,2047,2047,2047,2047,2047,2047,2047,2047,2047,2047,2047,2047,2047,2047,2047,2047,2047,2047,2047,2047,2047,2047,2047,2047,2047,2047,2047,2047,2047,2047,2047,2047,2047,2047,2047,2047,2047,2047,2047,2047,2047,2047,2047,2047,2047,2047,2047,2047,2047,2047,2047,2047,2047,2047,2047,2047,2047,2047,2047,2047,2047,2047,2047,2047,2047,2047,2047,2047,2047,2047,2047,2047,2047,2047,2047,2047,2047,2047,2047,2047,2047,2047,2047,2047,2047,2047,2047,2047,2047,2047,2047,2047,2047,2047,2047,2047,2047,2047,2047,2047,2047,2047,2047,2047,2047,2047,2047,2047,2047,2047,2047,2047,2047,2047,2047,2047,2047,2047,2047,2047,2047,2047,2047,2047,2047,2047,2047,2047,2047,2047,2047,2047,2047,2047,2047,2047,2047,2047,2047,2047,2047,2047,2047,2047,2047,2047,2047,2047,2047,2047,2047,2047,2047,2047,2047,2047,2047,2047,2047,2047,2047,2047,2047,2047,2047,2047,2047,2047,2047,2047,2047,880,879,879,879,879,879,879,880,880,880,880,879,880,880,879,880,880,880,880,880,880,880,880,880,880,880,880,880,880,881,881,881,881,881,881,881,881,881,881,881,881,881,881,881,881,881,881,881,881,881,881,881,881,881,881,881,881,881,881,881,881,881,881,882,881,881,881,881,881,881,881,881,881,881,881,881,881,882,882,882,882,882,882,882,882,882,881,881,882,882,882,882,882,882,882,882,882,882,882,882,882,882,882,882,882,882,882,882,882,882,882,882,883,883,882,882,883,883,883,883,882,882,882,882,882,882,883,883,883,884,884,884,885,886,886,886,885,886,886,2047,2047,2047,2047,2047,2047,2047,2047,2047,2047,2047,906,906,905,905,904,904,903,903,902,902,901,900,899,899,898,898,897,897,896,895,895,894,892,892,891,891,890,890,889,888,887,886,886,886,885,884,883,883,882,881,880,880,880,879,879,879,879,879,880,880,880,880,879,879,879,879,879,878,879,878,878,878,879,878,879,878,878,878,878,876,876,875,2047,2047,2047,2047,2047,2047,2047,2047,2047,2047,2047,2047
2047,625,625,624,624,623,623,623,623,622,622,622,622,622,622,622,622,622,623,623,623,622,622,622,623,623,623,623,624,624,624,624,624,624,624,626,625,624,624,624,623,624,623,623,624,624,623,624,624,624,624,625,625,625,626,626,627,627,627,628,629,629,629,630,631,631,631,632,634,635,636,636,635,635,636,636,636,652,652,652,655,654,657,658,661,662,663,664,664,665,665,667,668,670,670,684,684,685,686,686,686,687,688,688,687,688,691,691,689,869,869,869,870,870,870,872,872,871,871,871,871,871,871,871,871,871,871,871,871,871,871,870,870,871,871,871,871,871,871,872,872,872,872,872,872,871,871,871,871,871,871,871,871,871,871,871,871,871,872,872,872,872,872,872,872,872,872,872,872,872,2047,2047,2047,2047,2047,2047,2047,2047,2047,2047,2047,2047,2047,2047,2047,2047,2047,2047,2047,2047,2047,2047,2047,2047,2047,2047,2047,2047,2047,2047,2047,2047,2047,2047,2047,2047,2047,2047,2047,2047,2047,2047,2047,2047,2047,2047,2047,2047,2047,2047,2047,2047,2047,2047,2047,2047,2047,2047,2047,2047,2047,2047,2047,2047,2047,2047,2047,2047,2047,2047,2047,2047,2047,2047,2047,2047,2047,2047,2047,2047,2047,2047,2047,2047,2047,2047,2047,2047,2047,2047,2047,2047,2047,2047,2047,2047,2047,2047,2047,2047,2047,2047,2047,2047,2047,2047,2047,2047,2047,2047,2047,2047,2047,2047,2047,2047,2047,2047,2047,2047,2047,2047,2047,2047,2047,2047,2047,2047,2047,2047,2047,2047,2047,2047,2047,2047,2047,2047,2047,2047,2047,2047,2047,2047,2047,2047,2047,2047,2047,2047,2047,2047,2047,2047,2047,2047,2047,2047,2047,2047,2047,2047,2047,2047,2047,2047,2047,2047,2047,2047,2047,2047,2047,2047,2047,2047,2047,2047,2047,2047,2047,2047,2047,2047,2047,2047,2047,2047,2047,2047,2047,2047,2047,2047,2047,2047,2047,2047,2047,2047,2047,2047,2047,2047,2047,2047,2047,2047,2047,2047,2047,2047,2047,2047,2047,2047,2047,2047,2047,2047,2047,2047,2047,2047,2047,2047,2047,2047,2047,2047,2047,2047,2047,2047,880,879,879,879,879,879,879,879,880,880,880,880,880,880,880,880,880,880,880,880,880,880,880,880,880,880,880,880,880,880,880,881,881,881,881,881,881,881,881,881,881,881,881,881,881,881,881,881,881,881,881,881,881,881,881,881,881,881,881,881,881,881,881,881,882,881,881,881,881,881,881,881,881,881,881,881,881,881,882,882,882,882,881,882,882,882,882,881,881,882,882,882,882,882,882,882,882,882,882,882,882,882,882,882,882,882,882,882,882,882,882,882,882,882,882,882,883,883,882,883,882,882,882,882,882,882,882,882,883,883,884,884,884,885,886,886,886,885,885,886,2047,2047,2047,2047,2047,2047,2047,2047,2047,2047,2047,906,906,905,904,904,904,903,903,902,902,902,901,900,899,898,898,898,897,896,895,895,894,893,892,891,891,891,890,889,888,887,886,886,886,885,885,883,882,882,881,880,880,879,879,880,880,880,880,880,880,880,880,879,880,879,879,879,879,879,878,878,880,880,879,879,878,878,878,877,876,876,875,2047,2047,2047,2047,2047,2047,2047,2047,2047,2047,2047,2047
2047,625,625,624,624,623,623,623,622,622,622,621,622,622,622,622,622,622,623,623,623,623,622,622,623,623,623,624,624,624,625,624,624,624,624,625,624,624,624,624,624,624,624,623,624,624,624,624,624,625,625,626,626,626,626,627,627,627,627,627,628,629,629,630,630,630,631,632,633,634,635,635,635,635,636,636,637,637,647,647,649,653,656,658,660,662,663,664,664,665,665,667,668,671,671,671,686,686,686,686,686,687,688,689,688,688,691,691,691,869,870,870,870,870,871,871,871,871,871,871,871,871,871,871,871,871,871,871,871,871,871,870,871,871,871,871,871,871,871,872,872,872,872,872,872,872,871,871,872,871,871,871,871,871,871,871,871,871,872,872,872,872,872,872,872,872,872,872,872,872,2047,2047,2047,2047,2047,2047,2047,2047,2047,2047,2047,2047,2047,2047,2047,2047,2047,2047,2047,2047,2047,2047,2047,2047,2047,2047,2047,2047,2047,2047,2047,2047,2047,2047,2047,2047,2047,2047,2047,2047,2047,2047,2047,2047,2047,2047,2047,2047,2047,2047,2047,2047,2047,2047,2047,2047,2047,2047,2047,2047,2047,2047,2047,2047,2047,2047,2047,2047,2047,2047,2047,2047,2047,2047,2047,2047,2047,2047,2047,2047,2047,2047,2047,2047,2047,2047,2047,2047,2047,2047,2047,2047,2047,2047,2047,2047,2047,2047,2047,2047,2047,2047,2047,2047,2047,2047,2047,2047,2047,2047,2047,2047,2047,2047,2047,2047,2047,2047,2047,2047,2047,2047,2047,2047,2047,2047,2047,2047,2047,2047,2047,2047,2047,2047,2047,2047,2047,2047,2047,2047,2047,2047,2047,2047,2047,2047,2047,2047,2047,2047,2047,2047,2047,2047,2047,2047,2047,2047,2047,2047,2047,2047,2047,2047,2047,2047,2047,2047,2047,2047,2047,2047,2047,2047,2047,2047,2047,2047,2047,2047,2047,2047,2047,2047,2047,2047,2047,2047,2047,2047,2047,2047,2047,2047,2047,2047,2047,2047,2047,2047,2047,2047,2047,2047,2047,2047,2047,2047,2047,2047,2047,2047,2047,2047,2047,2047,2047,2047,2047,2047,2047,2047,2047,2047,2047,2047,2047,2047,2047,2047,2047,2047,2047,880,880,879,880,879,879,879,879,879,880,880,880,880,879,880,880,879,880,880,880,880,880,880,880,880,880,880,880,880,880,880,880,881,881,881,881,881,881,881,881,881,881,881,881,881,881,881,881,881,881,881,881,881,881,880,881,881,881,880,881,880,881,881,881,881,882,881,881,881,881,881,881,881,881,881,881,881,881,881,882,882,882,882,881,882,882,882,882,881,882,882,882,882,882,882,882,882,882,882,882,882,882,882,882,882,882,882,882,882,882,882,882,882,882,882,882,882,882,883,882,882,882,882,882,882,883,882,882,883,883,883,884,884,884,885,885,886,885,885,885,886,885,2047,2047,2047,2047,2047,2047,2047,2047,2047,2047,2047,905,904,904,903,903,903,902,903,902,901,900,900,899,899,898,898,897,896,895,895,894,893,892,891,891,891,890,889,888,887,886,886,886,885,884,883,882,882,881,880,879,879,879,879,880,880,880,880,880,880,880,879,879,879,879,879,879,879,878,878,879,880,879,879,878,878,878,878,877,876,875,2047,2047,2047,2047,2047,2047,2047,2047,2047,2047,2047,2047
626,625,625,624,624,623,623,623,622,622,621,621,621,621,622,622,622,622,623,623,623,622,622,623,623,623,623,624,625,625,625,625,624,624,624,625,624,624,624,624,624,625,625,624,624,624,624,625,625,625,625,626,626,627,627,627,627,627,627,627,628,628,629,630,630,630,630,632,633,634,634,635,635,635,636,636,637,639,639,645,647,651,651,658,660,662,662,664,664,665,665,667,668,671,671,670,686,686,686,685,686,687,688,689,689,689,691,691,869,869,869,869,870,871,871,871,871,871,871,871,871,871,871,871,871,870,870,871,871,871,871,870,870,871,871,871,871,871,871,871,872,872,872,872,872,872,872,872,872,871,871,871,871,871,871,871,871,871,872,872,872,872,872,872,872,872,872,872,873,872,2047,2047,2047,2047,2047,2047,2047,2047,2047,2047,2047,2047,2047,2047,2047,2047,2047,2047,2047,2047,2047,2047,2047,2047,2047,2047,2047,2047,2047,2047,2047,2047,2047,2047,2047,2047,2047,2047,2047,2047,2047,2047,2047,2047,2047,2047,2047,2047,2047,2047,2047,2047,2047,2047,2047,2047,2047,2047,2047,2047,2047,2047,2047,2047,2047,2047,2047,2047,2047,2047,2047,2047,2047,2047,2047,2047,2047,2047,2047,2047,2047,2047,2047,2047,2047,2047,2047,2047,2047,2047,2047,2047,2047,2047,2047,2047,2047,2047,2047,2047,2047,2047,2047,2047,2047,2047,2047,2047,2047,2047,2047,2047,2047,2047,2047,2047,2047,2047,2047,2047,2047,2047,2047,2047,2047,2047,2047,2047,2047,2047,2047,2047,2047,2047,2047,2047,2047,2047,2047,2047,2047,2047,2047,2047,2047,2047,2047,2047,2047,2047,2047,2047,2047,2047,2047,2047,2047,2047,2047,2047,2047,2047,2047,2047,2047,2047,2047,2047,2047,2047,2047,2047,2047,2047,2047,2047,2047,2047,2047,2047,2047,2047,2047,2047,2047,2047,2047,2047,2047,2047,2047,2047,2047,2047,2047,2047,2047,2047,2047,2047,2047,2047,2047,2047,2047,2047,2047,2047,2047,2047,2047,2047,2047,2047,2047,2047,2047,2047,2047,2047,2047,2047,2047,2047,2047,2047,2047,2047,2047,2047,2047,2047,2047,2047,880,879,879,879,879,879,879,879,880,880,880,880,880,880,880,880,880,880,879,880,879,879,880,880,879,879,880,880,880,881,881,881,881,880,881,880,880,880,881,881,881,881,881,881,880,881,881,881,881,881,881,881,881,880,881,881,881,881,881,881,881,881,881,881,881,881,881,881,881,881,881,881,881,881,881,881,881,881,882,882,882,882,881,882,882,882,882,882,882,882,882,882,882,882,882,882,882,882,881,882,882,882,882,882,882,882,882,882,882,882,882,882,882,882,882,882,882,883,882,882,882,882,882,882,883,882,882,882,883,883,884,884,884,885,885,886,885,885,885,886,885,2047,2047,2047,2047,2047,2047,2047,2047,2047,2047,2047,2047,904,903,903,903,903,902,902,901,901,900,900,899,899,898,898,897,895,894,894,893,892,892,891,891,891,890,889,888,887,886,886,886,885,884,883,882,882,880,880,879,879,879,879,879,879,879,880,880,880,880,880,880,879,880,879,879,879,879,879,879,879,879,879,878,878,878,877,877,876,875,2047,2047,2047,2047,2047,2047,2047,2047,2047,2047,2047,2047
626,625,625,624,623,623,623,622,622,621,621,621,621,622,622,622,623,623,623,623,623,623,622,623,623,623,623,624,625,625,625,625,624,624,624,625,624,625,625,625,625,626,626,626,625,625,625,625,625,625,626,627,627,627,627,627,627,627,627,627,628,629,630,630,630,630,631,631,633,633,634,635,635,635,636,636,637,639,639,642,645,647,647,657,660,662,663,664,664,665,665,666,667,668,670,670,685,685,685,684,686,688,689,690,690,691,692,692,869,869,869,869,869,871,871,871,871,871,871,871,871,871,871,871,870,871,871,870,871,870,871,870,871,871,871,871,871,871,871,871,871,872,872,872,872,872,872,872,872,871,871,871,871,871,871,871,871,871,872,872,872,872,872,872,872,872,872,872,872,872,2047,2047,2047,2047,2047,2047,2047,2047,2047,2047,2047,2047,2047,2047,2047,2047,2047,2047,2047,2047,2047,2047,2047,2047,2047,2047,2047,2047,2047,2047,2047,2047,2047,2047,2047,2047,2047,2047,2047,2047,2047,2047,2047,2047,2047,2047,2047,2047,2047,2047,2047,2047,2047,2047,2047,2047,2047,2047,2047,2047,2047,2047,2047,2047,2047,2047,2047,2047,2047,2047,2047,2047,2047,2047,2047,2047,2047,2047,2047,2047,2047,2047,2047,2047,2047,2047,2047,2047,2047,2047,2047,2047,2047,2047,2047,2047,2047,2047,2047,2047,2047,2047,2047,2047,2047,2047,2047,2047,2047,2047,2047,2047,2047,2047,2047,2047,2047,2047,2047,2047,2047,2047,2047,2047,2047,2047,2047,2047,2047,2047,2047,2047,2047,2047,2047,2047,2047,2047,2047,2047,2047,2047,2047,2047,2047,2047,2047,2047,2047,2047,2047,2047,2047,2047,2047,2047,2047,2047,2047,2047,2047,2047,2047,2047,2047,2047,2047,2047,2047,2047,2047,2047,2047,2047,2047,2047,2047,2047,2047,2047,2047,2047,2047,2047,2047,2047,2047,2047,2047,2047,2047,2047,2047,2047,2047,2047,2047,2047,2047,2047,2047,2047,2047,2047,2047,2047,2047,2047,2047,2047,2047,2047,2047,2047,2047,2047,2047,2047,2047,2047,2047,2047,2047,2047,2047,2047,2047,2047,2047,2047,2047,2047,2047,2047,879,879,879,879,879,879,879,879,880,880,880,880,880,880,880,880,880,880,879,880,879,879,879,879,879,879,880,880,880,880,881,880,880,880,880,880,880,880,880,881,881,881,881,881,880,881,881,881,881,881,881,880,880,880,880,880,880,880,880,880,880,881,881,881,881,881,881,881,881,881,881,881,881,881,881,881,881,881,882,882,882,882,882,882,882,882,882,882,882,882,882,882,882,882,882,882,882,882,882,882,882,882,882,882,882,882,882,882,882,882,882,882,882,882,883,882,882,883,882,882,882,882,882,882,883,882,882,883,883,883,884,884,884,885,885,885,885,884,884,885,885,2047,2047,2047,2047,2047,2047,2047,2047,2047,2047,2047,2047,2047,903,903,903,902,902,901,901,901,900,900,899,899,898,897,897,896,895,894,894,893,892,891,891,891,890,889,888,887,886,886,886,885,884,883,882,882,881,880,879,879,879,880,880,880,880,880,880,880,880,880,880,879,879,879,879,879,879,879,879,879,879,879,879,878,878,878,878,877,875,875,875,875,2047,877,2047,2047,2047,2047,2047,2047,2047
625,625,625,624,623,622,622,622,621,621,621,621,621,622,622,622,622,623,623,623,623,622,622,623,623,623,623,624,624,625,625,624,624,624,624,624,624,625,625,625,625,626,626,626,625,625,625,626,626,626,627,627,627,627,628,627,627,628,627,627,628,629,630,630,631,631,631,632,632,633,633,635,635,636,636,637,637,639,640,642,645,646,647,647,649,662,662,663,664,665,665,667,668,669,671,676,681,685,685,684,686,687,688,689,689,691,691,691,868,869,869,869,869,871,871,871,871,871,871,871,871,871,871,871,871,870,870,870,871,870,871,871,871,871,870,871,871,871,871,871,871,872,872,872,872,872,872,872,872,871,871,871,871,871,871,871,871,871,872,872,872,872,872,872,872,871,871,871,872,872,2047,2047,2047,2047,2047,2047,2047,2047,2047,2047,2047,2047,2047,2047,2047,2047,2047,2047,2047,2047,2047,2047,2047,2047,2047,2047,2047,2047,2047,2047,2047,2047,2047,2047,2047,2047,2047,2047,2047,2047,2047,2047,2047,2047,2047,2047,2047,2047,2047,2047,2047,2047,2047,2047,2047,2047,2047,2047,2047,2047,2047,2047,2047,2047,2047,2047,2047,2047,2047,2047,2047,2047,2047,2047,2047,2047,2047,2047,2047,2047,2047,2047,2047,2047,2047,2047,2047,2047,2047,2047,2047,2047,2047,2047,2047,2047,2047,2047,2047,2047,2047,2047,2047,2047,2047,2047,2047,2047,2047,2047,2047,2047,2047,2047,2047,2047,2047,2047,2047,2047,2047,2047,2047,2047,2047,2047,2047,2047,2047,2047,2047,2047,2047,2047,2047,2047,2047,2047,2047,2047,2047,2047,2047,2047,2047,2047,2047,2047,2047,2047,2047,2047,2047,2047,2047,2047,2047,2047,2047,2047,2047,2047,2047,2047,2047,2047,2047,2047,2047,2047,2047,2047,2047,2047,2047,2047,2047,2047,2047,2047,2047,2047,2047,2047,2047,2047,2047,2047,2047,2047,2047,2047,2047,2047,2047,2047,2047,2047,2047,2047,2047,2047,2047,2047,2047,2047,2047,2047,2047,2047,2047,2047,2047,2047,2047,2047,2047,2047,2047,2047,2047,2047,2047,2047,2047,2047,2047,2047,2047,2047,2047,2047,2047,2047,880,879,879,878,879,879,879,879,879,880,880,880,880,880,880,880,880,880,880,880,880,879,880,879,879,879,879,880,880,880,880,880,880,880,880,880,880,881,880,881,881,881,881,881,880,881,881,881,881,881,881,880,881,880,880,880,880,880,880,881,880,881,881,881,881,881,881,881,881,881,881,881,881,881,881,881,881,881,882,882,882,882,882,882,882,882,882,882,882,882,882,882,882,882,881,881,882,882,881,882,882,882,882,882,882,882,882,882,882,882,882,882,882,882,883,882,882,883,882,883,883,882,882,883,883,882,882,883,883,883,884,884,884,885,885,885,885,884,884,884,885,2047,2047,2047,2047,2047,2047,2047,2047,2047,2047,2047,2047,2047,904,904,903,903,902,901,901,901,900,899,899,899,898,897,897,895,894,894,893,892,891,891,891,891,890,889,888,887,886,886,885,885,884,883,882,882,881,880,879,879,879,880,880,880,880,880,880,880,880,880,880,880,880,879,879,880,879,879,879,880,880,880,879,879,878,878,878,877,875,875,874,875,875,876,2047,2047,2047,2047,2047,2047,2047
625,625,625,624,623,622,622,622,622,621,620,620,621,621,622,622,622,623,623,623,623,622,622,622,623,623,623,623,624,625,625,624,624,624,624,624,624,624,624,625,625,626,626,626,626,626,626,626,626,626,627,628,628,628,628,628,628,628,628,628,628,629,630,630,631,631,631,631,632,632,632,633,635,635,636,637,639,640,641,643,644,645,645,645,649,649,663,663,663,664,664,666,667,668,670,675,674,684,685,684,686,688,688,689,690,691,691,691,868,869,869,869,870,871,871,871,871,871,871,871,871,871,871,871,871,870,870,870,870,870,871,870,870,870,870,870,870,871,871,871,871,871,871,871,871,871,870,870,870,871,870,870,871,871,871,871,871,871,872,872,872,872,872,872,872,871,871,871,872,872,2047,2047,2047,2047,2047,2047,2047,2047,2047,2047,2047,2047,2047,2047,2047,2047,2047,2047,2047,2047,2047,2047,2047,2047,2047,2047,2047,2047,2047,2047,2047,2047,2047,2047,2047,2047,2047,2047,2047,2047,2047,2047,2047,2047,2047,2047,2047,2047,2047,2047,2047,2047,2047,2047,2047,2047,2047,2047,2047,2047,2047,2047,2047,2047,2047,2047,2047,2047,2047,2047,2047,2047,2047,2047,2047,2047,2047,2047,2047,2047,2047,2047,2047,2047,2047,2047,2047,2047,2047,2047,2047,2047,2047,2047,2047,2047,2047,2047,2047,2047,2047,2047,2047,2047,2047,2047,2047,2047,2047,2047,2047,2047,2047,2047,2047,2047,2047,2047,2047,2047,2047,2047,2047,2047,2047,2047,2047,2047,2047,2047,2047,2047,2047,2047,2047,2047,2047,2047,2047,2047,2047,2047,2047,2047,2047,2047,2047,2047,2047,2047,2047,2047,2047,2047,2047,2047,2047,2047,2047,2047,2047,2047,2047,2047,2047,2047,2047,2047,2047,2047,2047,2047,2047,2047,2047,2047,2047,2047,2047,2047,2047,2047,2047,2047,2047,2047,2047,2047,2047,2047,2047,2047,2047,2047,2047,2047,2047,2047,2047,2047,2047,2047,2047,2047,2047,2047,2047,2047,2047,2047,2047,2047,2047,2047,2047,2047,2047,2047,2047,2047,2047,2047,2047,2047,2047,2047,2047,2047,2047,2047,2047,2047,2047,2047,2047,879,879,878,879,879,878,878,878,880,879,880,880,880,880,880,880,880,880,880,880,880,880,880,879,879,880,880,880,880,880,880,880,880,880,880,880,881,881,881,881,881,881,881,881,881,881,881,881,881,881,881,881,880,881,881,881,881,881,881,881,881,881,881,880,881,881,881,881,881,881,881,881,881,881,881,881,881,882,882,882,882,882,882,882,882,882,882,882,882,882,882,881,881,881,881,882,882,881,882,882,882,882,882,882,882,882,882,882,882,882,882,882,882,883,883,883,883,883,883,883,882,882,883,883,882,882,883,883,883,884,883,884,885,886,885,885,884,884,885,2047,2047,2047,2047,2047,2047,2047,2047,2047,2047,2047,2047,2047,904,903,904,904,903,902,901,900,900,900,899,899,898,898,897,896,895,894,893,893,893,891,891,890,890,890,889,887,887,886,886,885,885,884,883,882,882,881,880,879,879,879,880,880,880,880,880,880,880,879,880,880,879,880,879,879,879,880,879,879,880,880,880,879,879,879,878,878,875,875,874,874,874,875,876,2047,2047,2047,2047,2047,2047,2047
625,625,625,624,623,622,622,621,621,620,620,620,620,620,621,621,622,622,622,623,623,622,621,621,621,622,622,621,623,625,625,624,624,624,624,624,624,624,623,624,624,625,626,626,625,625,626,626,625,626,627,628,628,628,628,628,628,628,628,628,629,629,630,630,631,630,630,631,631,632,632,633,634,635,636,637,639,640,641,643,645,645,646,647,650,649,648,661,662,664,664,666,667,667,668,674,673,684,685,685,687,688,688,689,690,691,691,869,868,868,869,869,869,869,870,871,871,871,871,871,871,871,871,871,871,870,870,870,870,870,871,871,871,871,870,871,871,871,871,871,871,871,871,871,871,871,871,871,871,869,870,870,870,871,871,871,871,871,872,872,872,872,873,872,872,872,871,871,871,870,2047,2047,2047,2047,2047,2047,2047,2047,2047,2047,2047,2047,2047,2047,2047,2047,2047,2047,2047,2047,2047,2047,2047,2047,2047,2047,2047,2047,2047,2047,2047,2047,2047,2047,2047,2047,2047,2047,2047,2047,2047,2047,2047,2047,2047,2047,2047,2047,2047,2047,2047,2047,2047,2047,2047,2047,2047,2047,2047,2047,2047,2047,2047,2047,2047,2047,2047,2047,2047,2047,2047,2047,2047,2047,2047,2047,2047,2047,2047,2047,2047,2047,2047,2047,2047,2047,2047,2047,2047,2047,2047,2047,2047,2047,2047,2047,2047,2047,2047,2047,2047,2047,2047,2047,2047,2047,2047,2047,2047,2047,2047,2047,2047,2047,2047,2047,2047,2047,2047,2047,2047,2047,2047,2047,2047,2047,2047,2047,2047,2047,2047,2047,2047,2047,2047,2047,2047,2047,2047,2047,2047,2047,2047,2047,2047,2047,2047,2047,2047,2047,2047,2047,2047,2047,2047,2047,2047,2047,2047,2047,2047,2047,2047,2047,2047,2047,2047,2047,2047,2047,2047,2047,2047,2047,2047,2047,2047,2047,2047,2047,2047,2047,2047,2047,2047,2047,2047,2047,2047,2047,2047,2047,2047,2047,2047,2047,2047,2047,2047,2047,2047,2047,2047,2047,2047,2047,2047,2047,2047,2047,2047,2047,2047,2047,2047,2047,2047,2047,2047,2047,2047,2047,2047,2047,2047,2047,2047,2047,2047,2047,2047,2047,2047,2047,2047,2047,2047,878,879,878,878,879,879,881,879,880,880,880,880,880,881,880,880,881,881,881,880,880,880,880,881,880,880,881,880,881,880,880,882,882,882,882,881,881,881,881,881,881,881,881,881,881,881,881,881,881,881,880,881,881,881,881,881,881,880,881,881,881,881,881,881,881,881,881,881,881,881,881,881,881,881,881,882,882,883,882,882,882,882,882,883,883,882,883,883,882,882,882,882,881,882,882,882,882,883,882,883,882,882,883,882,882,883,883,883,883,882,883,883,883,883,883,883,883,883,883,883,883,883,883,882,883,883,883,884,884,884,885,886,886,885,885,885,885,885,2047,918,918,919,2047,2047,2047,2047,2047,2047,2047,2047,904,904,904,904,903,902,901,900,900,900,899,899,898,897,897,896,895,895,893,893,892,891,891,890,890,890,889,888,887,886,886,885,885,884,883,882,882,881,880,879,879,879,880,880,880,880,880,880,880,880,879,879,879,880,879,879,879,879,879,879,880,880,879,879,879,878,878,878,876,875,874,873,872,872,875,2047,2047,2047,2047,2047,2047,2047
625,625,624,624,623,622,622,621,621,620,620,619,620,620,620,620,621,622,622,622,622,621,620,619,618,622,621,619,619,624,624,624,624,623,623,623,623,622,621,623,623,624,624,625,624,625,626,626,625,626,627,628,628,628,628,628,628,628,628,628,629,629,630,630,631,630,630,630,630,631,632,632,633,634,636,637,640,642,643,644,646,647,648,649,651,651,652,659,660,663,664,666,667,667,668,673,672,685,685,685,687,688,689,689,690,691,691,868,868,869,869,869,869,870,870,871,871,871,871,871,871,871,871,871,871,870,870,870,869,869,871,871,871,871,871,871,871,871,871,871,870,871,871,871,871,871,870,869,870,870,870,870,870,870,871,871,871,871,872,872,872,872,872,872,872,872,872,872,872,871,2047,2047,2047,2047,2047,2047,2047,2047,2047,2047,2047,2047,2047,2047,2047,2047,2047,2047,2047,2047,2047,2047,2047,2047,2047,2047,2047,2047,2047,2047,2047,2047,2047,2047,2047,2047,2047,2047,2047,2047,2047,2047,2047,2047,2047,2047,2047,2047,2047,2047,2047,2047,2047,2047,2047,2047,2047,2047,2047,2047,2047,2047,2047,2047,2047,2047,2047,2047,2047,2047,2047,2047,2047,2047,2047,2047,2047,2047,2047,2047,2047,2047,2047,2047,2047,2047,2047,2047,2047,2047,2047,2047,2047,2047,2047,2047,2047,2047,2047,2047,2047,2047,2047,2047,2047,2047,2047,2047,2047,2047,2047,2047,2047,2047,2047,2047,2047,2047,2047,2047,2047,2047,2047,2047,2047,2047,2047,2047,2047,2047,2047,2047,2047,2047,2047,2047,2047,2047,2047,2047,2047,2047,2047,2047,2047,2047,2047,2047,2047,2047,2047,2047,2047,2047,2047,2047,2047,2047,2047,2047,2047,2047,2047,2047,2047,2047,2047,2047,2047,2047,2047,2047,2047,2047,2047,2047,2047,2047,2047,2047,2047,2047,2047,2047,2047,2047,2047,2047,2047,2047,2047,2047,2047,2047,2047,2047,2047,2047,2047,2047,2047,2047,2047,2047,2047,2047,2047,2047,2047,2047,2047,2047,2047,2047,2047,2047,2047,2047,2047,2047,2047,2047,2047,2047,2047,2047,2047,2047,2047,2047,2047,2047,2047,2047,2047,2047,2047,2047,880,879,879,880,880,880,880,880,880,881,880,880,882,881,881,882,881,881,881,881,881,881,881,881,881,881,881,881,881,880,880,881,883,882,882,881,881,881,881,881,881,881,881,881,881,881,881,881,882,881,881,881,881,881,881,881,881,881,881,881,881,881,881,881,881,881,881,881,881,881,881,881,881,882,882,883,882,883,882,882,882,882,883,883,883,883,883,882,883,882,883,882,883,882,882,882,883,882,882,882,883,883,882,882,883,883,883,883,883,883,883,883,883,883,883,883,883,883,883,883,883,883,883,883,884,884,884,885,885,886,886,886,886,886,886,885,885,2047,918,918,918,2047,2047,2047,2047,2047,2047,2047,2047,2047,904,904,904,902,902,901,900,899,899,899,898,898,897,896,895,894,894,892,892,892,891,891,891,890,890,889,888,887,887,886,885,884,883,883,883,882,882,880,879,879,879,880,880,879,880,880,880,880,880,880,879,879,879,879,879,879,879,879,879,880,880,880,880,879,879,879,877,875,874,873,872,871,871,874,2047,2047,2047,2047,2047,2047,2047
625,625,624,624,623,622,622,622,621,620,620,619,620,620,620,620,620,621,620,621,621,620,619,618,618,621,620,618,618,624,624,623,623,619,622,621,622,620,619,620,621,623,621,624,623,625,626,626,625,626,627,627,627,627,628,628,628,628,628,628,629,629,629,629,630,629,629,630,630,631,631,632,632,634,637,639,641,642,643,645,646,647,648,651,652,652,654,656,657,662,663,666,667,667,668,672,672,672,672,688,688,689,690,690,691,691,869,868,868,869,869,869,869,870,870,871,871,871,871,871,871,871,871,871,870,870,870,870,869,869,871,871,871,871,871,871,871,871,871,871,870,870,870,871,871,870,870,870,870,870,870,870,871,871,871,871,871,871,872,872,871,872,872,872,872,872,872,871,872,871,2047,2047,2047,2047,2047,2047,2047,2047,2047,2047,2047,2047,2047,2047,2047,2047,2047,2047,2047,2047,2047,2047,2047,2047,2047,2047,2047,2047,2047,2047,2047,2047,2047,2047,2047,2047,2047,2047,2047,2047,2047,2047,2047,2047,2047,2047,2047,2047,2047,2047,2047,2047,2047,2047,2047,2047,2047,2047,2047,2047,2047,2047,2047,2047,2047,2047,2047,2047,2047,2047,2047,2047,2047,2047,2047,2047,2047,2047,2047,2047,2047,2047,2047,2047,2047,2047,2047,2047,2047,2047,2047,2047,2047,2047,2047,2047,2047,2047,2047,2047,2047,2047,2047,2047,2047,2047,2047,2047,2047,2047,2047,2047,2047,2047,2047,2047,2047,2047,2047,2047,2047,2047,2047,2047,2047,2047,2047,2047,2047,2047,2047,2047,2047,2047,2047,2047,2047,2047,2047,2047,2047,2047,2047,2047,2047,2047,2047,2047,2047,2047,2047,2047,2047,2047,2047,2047,2047,2047,2047,2047,2047,2047,2047,2047,2047,2047,2047,2047,2047,2047,2047,2047,2047,2047,2047,2047,2047,2047,2047,2047,2047,2047,2047,2047,2047,2047,2047,2047,2047,2047,2047,2047,2047,2047,2047,2047,2047,2047,2047,2047,2047,2047,2047,2047,2047,2047,2047,2047,2047,2047,2047,2047,2047,2047,2047,2047,2047,2047,2047,2047,2047,2047,2047,2047,2047,2047,2047,2047,2047,2047,2047,2047,2047,2047,2047,2047,2047,881,881,880,880,881,881,881,880,881,881,881,881,881,882,881,882,882,882,881,882,881,881,881,881,881,881,881,881,881,882,882,883,883,883,882,882,882,882,881,881,881,881,881,881,881,881,881,882,881,882,881,881,881,882,881,881,881,881,882,881,881,881,881,881,881,881,881,881,881,881,881,882,882,882,882,883,883,883,883,883,883,883,883,883,883,883,883,883,883,883,882,882,882,883,883,882,883,883,882,882,882,883,883,882,882,883,883,883,883,883,883,884,883,883,883,884,883,883,883,883,883,883,883,883,883,884,884,884,885,885,886,886,886,886,886,886,885,885,917,918,918,918,918,918,2047,2047,2047,2047,2047,2047,2047,904,904,904,902,902,900,900,899,899,899,898,898,897,896,896,895,894,892,893,892,892,891,891,890,890,889,888,887,887,886,885,884,884,884,883,883,882,880,880,879,880,879,880,879,879,880,880,880,880,880,879,879,879,879,879,879,879,879,879,880,880,880,880,879,879,878,878,873,873,872,871,871,871,875,2047,2047,2047,2047,2047,2047,2047
624,625,624,624,623,621,620,620,620,619,619,618,618,618,619,619,620,620,620,620,620,619,613,612,612,612,617,615,614,613,623,616,616,616,616,617,617,618,618,618,620,621,620,622,620,621,622,620,621,620,626,626,626,626,627,627,627,628,628,628,628,629,629,628,630,629,629,629,630,631,631,631,632,633,638,640,641,643,644,646,648,648,649,651,652,653,654,656,656,656,661,665,666,667,668,669,672,672,2047,688,688,689,690,690,691,691,868,868,868,869,869,869,869,870,870,871,871,871,871,871,871,871,871,871,871,870,870,870,869,870,870,871,871,871,871,871,871,871,871,870,870,870,870,870,870,870,870,870,870,870,870,870,870,871,871,871,871,870,872,872,871,871,871,871,872,871,871,871,872,871,2047,2047,2047,2047,2047,2047,2047,2047,2047,2047,2047,2047,2047,2047,2047,2047,2047,2047,2047,2047,2047,2047,2047,2047,2047,2047,2047,2047,2047,2047,2047,2047,2047,2047,2047,2047,2047,2047,2047,2047,2047,2047,2047,2047,2047,2047,2047,2047,2047,2047,2047,2047,2047,2047,2047,2047,2047,2047,2047,2047,2047,2047,2047,2047,2047,2047,2047,2047,2047,2047,2047,2047,2047,2047,2047,2047,2047,2047,2047,2047,2047,2047,2047,2047,2047,2047,2047,2047,2047,2047,2047,2047,2047,2047,2047,2047,2047,2047,2047,2047,2047,2047,2047,2047,2047,2047,2047,2047,2047,2047,2047,2047,2047,2047,2047,2047,2047,2047,2047,2047,2047,2047,2047,2047,2047,2047,2047,2047,2047,2047,2047,2047,2047,2047,2047,2047,2047,2047,2047,2047,2047,2047,2047,2047,2047,2047,2047,2047,2047,2047,2047,2047,2047,2047,2047,2047,2047,2047,2047,2047,2047,2047,2047,2047,2047,2047,2047,2047,2047,2047,2047,2047,2047,2047,2047,2047,2047,2047,2047,2047,2047,2047,2047,2047,2047,2047,2047,2047,2047,2047,2047,2047,2047,2047,2047,2047,2047,2047,2047,2047,2047,2047,2047,2047,2047,2047,2047,2047,2047,2047,2047,2047,2047,2047,2047,2047,2047,2047,2047,2047,2047,2047,2047,2047,2047,2047,2047,2047,2047,2047,2047,2047,2047,2047,2047,2047,2047,882,881,880,880,881,881,881,881,881,881,881,881,882,882,882,882,882,882,882,882,882,882,882,882,881,882,882,882,883,883,883,883,883,883,883,882,882,882,882,881,881,881,882,882,882,881,881,882,882,882,881,881,881,881,881,881,881,881,882,882,882,882,882,882,882,881,882,882,881,882,882,882,882,882,882,883,883,883,884,883,884,883,883,884,884,883,883,883,884,884,883,883,884,884,883,883,883,883,883,883,883,883,883,882,882,883,884,883,883,883,884,884,884,884,884,885,883,883,883,883,883,883,883,883,883,884,884,884,884,885,886,886,886,886,886,887,886,886,917,917,918,918,918,918,918,918,2047,2047,2047,2047,2047,904,904,904,902,902,901,900,899,899,899,898,898,897,896,895,895,894,892,893,892,892,891,891,890,890,889,888,887,887,886,886,885,885,884,883,883,882,880,880,879,880,879,880,879,879,879,879,879,880,880,879,879,879,879,879,878,879,878,879,879,880,880,880,879,879,879,873,873,873,871,871,871,872,873,2047,2047,2047,2047,2047,2047,2047
2047,624,623,623,622,621,620,619,619,618,618,616,616,616,615,619,619,620,618,613,613,612,612,611,611,612,613,613,613,613,614,615,615,615,615,615,616,616,616,616,617,617,618,618,618,619,620,620,620,620,623,624,624,624,625,626,627,627,627,627,628,629,629,628,629,629,629,629,630,631,631,631,632,634,639,641,642,643,645,647,648,649,650,652,653,654,654,656,655,656,657,662,665,667,668,669,668,668,668,688,688,688,689,689,691,691,869,868,869,870,870,869,869,871,870,871,871,871,871,871,871,871,871,871,870,870,870,870,870,870,870,870,871,870,871,871,871,871,871,870,870,870,870,870,870,870,870,870,870,870,870,870,870,870,871,871,871,871,872,872,871,872,871,871,872,871,871,871,870,869,2047,2047,2047,2047,2047,2047,2047,2047,2047,2047,2047,2047,2047,2047,2047,2047,2047,2047,2047,2047,2047,2047,2047,2047,2047,2047,2047,2047,2047,2047,2047,2047,2047,2047,2047,2047,2047,2047,2047,2047,2047,2047,2047,2047,2047,2047,2047,2047,2047,2047,2047,2047,2047,2047,2047,2047,2047,2047,2047,2047,2047,2047,2047,2047,2047,2047,2047,2047,2047,2047,2047,2047,2047,2047,2047,2047,2047,2047,2047,2047,2047,2047,2047,2047,2047,2047,2047,2047,2047,2047,2047,2047,2047,2047,2047,2047,2047,2047,2047,2047,2047,2047,2047,2047,2047,2047,2047,2047,2047,2047,2047,2047,2047,2047,2047,2047,2047,2047,2047,2047,2047,2047,2047,2047,2047,2047,2047,2047,2047,2047,2047,2047,2047,2047,2047,2047,2047,2047,2047,2047,2047,2047,2047,2047,2047,2047,2047,2047,2047,2047,2047,2047,2047,2047,2047,2047,2047,2047,2047,2047,2047,2047,2047,2047,2047,2047,2047,2047,2047,2047,2047,2047,2047,2047,2047,2047,2047,2047,2047,2047,2047,2047,2047,2047,2047,2047,2047,2047,2047,2047,2047,2047,2047,2047,2047,2047,2047,2047,2047,2047,2047,2047,2047,2047,2047,2047,2047,2047,2047,2047,2047,2047,2047,2047,2047,2047,2047,2047,2047,2047,2047,2047,2047,2047,2047,2047,2047,2047,2047,2047,2047,2047,2047,2047,2047,882,882,882,882,881,881,881,881,881,881,881,881,881,881,881,882,882,882,882,882,882,882,882,882,882,882,882,882,882,882,882,882,883,883,883,883,883,882,882,882,882,882,881,881,882,882,882,882,882,883,882,882,882,882,882,882,881,881,882,882,882,882,882,882,882,882,882,882,882,882,882,882,882,883,883,882,882,883,884,884,884,884,885,884,885,885,884,884,883,884,884,884,883,883,885,883,884,884,883,883,883,883,883,883,883,883,884,884,884,884,884,884,884,884,884,884,884,885,883,883,883,883,883,883,883,883,884,884,884,885,885,886,886,886,886,886,886,887,887,918,918,918,918,918,918,918,918,918,2047,2047,2047,2047,2047,2047,904,904,903,902,901,900,900,899,899,898,898,897,896,896,895,894,893,893,892,891,891,891,890,890,889,888,887,887,886,886,885,885,885,883,882,882,881,880,880,880,879,879,879,879,879,879,879,879,879,878,878,879,879,879,878,879,878,879,879,879,880,879,879,879,879,2047,873,873,872,871,871,872,873,2047,2047,2047,2047,2047,2047,2047
2047,2047,616,622,622,622,622,613,613,613,613,613,613,613,613,612,612,612,612,611,612,612,611,611,611,611,612,612,612,613,613,614,614,614,614,615,616,616,616,616,617,617,617,617,617,619,619,619,619,620,621,622,623,623,624,625,625,626,625,626,628,628,628,628,629,628,628,628,629,630,631,631,632,633,639,642,644,645,646,648,649,650,651,653,654,654,655,656,655,656,656,659,664,667,668,669,668,668,668,668,688,688,689,689,690,868,869,869,869,870,870,870,870,871,870,870,871,871,870,871,871,871,871,871,871,870,870,870,870,870,870,871,871,871,871,871,871,871,871,870,870,870,870,870,870,870,870,870,870,870,870,871,871,871,870,871,871,871,872,872,871,872,872,872,872,872,871,872,870,870,2047,2047,2047,2047,2047,2047,2047,2047,2047,2047,2047,2047,2047,2047,2047,2047,2047,2047,2047,2047,2047,2047,2047,2047,2047,2047,2047,2047,2047,2047,2047,2047,2047,2047,2047,2047,2047,2047,2047,2047,2047,2047,2047,2047,2047,2047,2047,2047,2047,2047,2047,2047,2047,2047,2047,2047,2047,2047,2047,2047,2047,2047,2047,2047,2047,2047,2047,2047,2047,2047,2047,2047,2047,2047,2047,2047,2047,2047,2047,2047,2047,2047,2047,2047,2047,2047,2047,2047,2047,2047,2047,2047,2047,2047,2047,2047,2047,2047,2047,2047,2047,2047,2047,2047,2047,2047,2047,2047,2047,2047,2047,2047,2047,2047,2047,2047,2047,2047,2047,2047,2047,2047,2047,2047,2047,2047,2047,2047,2047,2047,2047,2047,2047,2047,2047,2047,2047,2047,2047,2047,2047,2047,2047,2047,2047,2047,2047,2047,2047,2047,2047,2047,2047,2047,2047,2047,2047,2047,2047,2047,2047,2047,2047,2047,2047,2047,2047,2047,2047,2047,2047,2047,2047,2047,2047,2047,2047,2047,2047,2047,2047,2047,2047,2047,2047,2047,2047,2047,2047,2047,2047,2047,2047,2047,2047,2047,2047,2047,2047,2047,2047,2047,2047,2047,2047,2047,2047,2047,2047,2047,2047,2047,2047,2047,2047,2047,2047,2047,2047,2047,2047,2047,2047,2047,2047,2047,2047,2047,2047,2047,2047,2047,2047,2047,882,882,882,882,882,881,881,881,882,882,881,881,881,882,882,882,882,882,882,882,882,882,882,882,882,882,882,882,882,882,882,882,883,883,883,883,883,882,882,882,882,882,882,882,882,882,882,882,882,882,883,883,883,882,882,882,882,881,882,882,882,883,882,882,882,882,882,882,882,882,882,882,883,884,884,883,882,882,883,884,884,884,885,885,885,885,885,885,884,884,884,884,885,884,884,885,885,884,884,884,884,884,884,883,883,884,884,884,884,884,884,884,884,884,884,884,884,884,885,885,885,885,884,883,883,884,883,884,884,884,884,885,886,886,886,886,886,886,887,887,918,918,918,918,918,917,917,917,917,917,2047,2047,2047,2047,2047,904,903,903,902,902,901,901,899,898,898,898,897,896,896,895,894,894,893,893,892,891,891,890,890,889,888,888,887,886,885,885,885,884,883,882,881,880,880,880,880,879,880,879,879,879,879,879,879,879,878,878,878,878,879,878,878,878,879,879,879,879,879,879,879,879,871,871,871,871,870,870,870,871,2047,2047,2047,2047,2047,2047,2047
2047,616,616,616,613,615,615,612,612,613,613,613,613,613,612,613,612,611,611,611,611,611,611,611,611,611,612,612,612,613,613,613,613,614,614,614,615,615,615,616,616,616,617,617,617,619,619,619,620,620,621,621,621,622,623,624,624,624,625,625,627,627,627,627,628,628,628,628,628,630,630,631,631,631,641,646,646,647,648,649,650,651,652,653,654,655,656,656,656,657,657,658,663,666,667,668,668,668,668,668,688,688,689,689,689,868,868,868,869,869,869,869,869,870,870,870,870,870,871,871,871,871,871,870,870,870,870,870,870,870,870,871,871,871,871,871,871,871,871,871,870,870,870,870,870,870,870,870,870,870,870,870,870,870,870,870,870,870,872,871,871,871,871,872,872,872,872,872,871,870,2047,2047,2047,2047,2047,2047,2047,2047,2047,2047,2047,2047,2047,2047,2047,2047,2047,2047,2047,2047,2047,2047,2047,2047,2047,2047,2047,2047,2047,2047,2047,2047,2047,2047,2047,2047,2047,2047,2047,2047,2047,2047,2047,2047,2047,2047,2047,2047,2047,2047,2047,2047,2047,2047,2047,2047,2047,2047,2047,2047,2047,2047,2047,2047,2047,2047,2047,2047,2047,2047,2047,2047,2047,2047,2047,2047,2047,2047,2047,2047,2047,2047,2047,2047,2047,2047,2047,2047,2047,2047,2047,2047,2047,2047,2047,2047,2047,2047,2047,2047,2047,2047,2047,2047,2047,2047,2047,2047,2047,2047,2047,2047,2047,2047,2047,2047,2047,2047,2047,2047,2047,2047,2047,2047,2047,2047,2047,2047,2047,2047,2047,2047,2047,2047,2047,2047,2047,2047,2047,2047,2047,2047,2047,2047,2047,2047,2047,2047,2047,2047,2047,2047,2047,2047,2047,2047,2047,2047,2047,2047,2047,2047,2047,2047,2047,2047,2047,2047,2047,2047,2047,2047,2047,2047,2047,2047,2047,2047,2047,2047,2047,2047,2047,2047,2047,2047,2047,2047,2047,2047,2047,2047,2047,2047,2047,2047,2047,2047,2047,2047,2047,2047,2047,2047,2047,2047,2047,2047,2047,2047,2047,2047,2047,2047,2047,2047,2047,2047,2047,2047,2047,2047,2047,2047,2047,2047,2047,2047,2047,2047,2047,2047,2047,2047,882,882,882,882,882,881,881,881,882,882,881,881,881,881,881,882,882,882,882,882,882,882,883,882,882,882,882,882,882,882,882,882,883,883,883,883,882,882,882,882,882,882,882,882,882,882,882,882,882,882,883,883,883,882,882,882,882,882,882,882,882,882,882,882,882,882,882,882,882,882,882,882,883,884,884,883,882,882,884,885,885,885,885,885,885,885,885,885,884,884,884,884,885,884,884,885,885,885,884,884,884,884,884,884,884,884,884,884,884,884,884,884,884,884,884,884,884,884,885,885,885,885,884,883,883,883,883,884,885,885,885,886,886,886,886,886,886,886,887,887,888,918,917,917,917,917,917,917,917,918,918,918,2047,2047,2047,904,903,903,902,902,901,901,899,898,898,898,896,896,896,895,895,894,894,893,892,891,891,890,890,889,888,887,887,886,886,885,885,884,883,882,882,881,881,881,880,879,879,879,879,879,879,879,879,879,878,878,878,878,879,878,878,878,879,879,879,879,879,879,879,879,871,871,871,870,869,869,871,871,2047,2047,2047,2047,2047,2047,2047
